1.091 2.115 1.276 56 55 45
1.089 2.120 1.276 58 55 45
1.089 2.119 1.278 59 56 47
1.089 2.120 1.278 58 55 45
1.078 2.188 1.280 136 129 116
1.089 2.112 1.287 54 52 41
1.085 2.117 1.280 60 58 46
1.085 2.119 1.280 150 134 114
1.088 2.114 1.286 56 53 44
1.083 2.118 1.287 58 54 43
1.084 2.120 1.285 57 54 45
1.088 2.118 1.287 56 55 45
1.085 2.120 1.281 57 54 45
1.088 2.121 1.280 57 55 44
1.087 2.121 1.282 57 55 44
1.087 2.121 1.285 55 54 44
1.088 2.121 1.285 61 59 47
1.088 2.121 1.286 58 55 46
1.084 2.120 1.287 55 54 44
1.087 2.123 1.287 58 55 46
1.082 2.118 1.293 57 54 45
1.082 2.119 1.294 57 55 45
1.088 2.119 1.292 58 56 45
1.087 2.120 1.294 62 58 48
1.085 2.121 1.288 54 52 42
1.088 2.121 1.290 61 57 46
1.084 2.121 1.292 54 52 42
1.085 2.123 1.292 55 52 44
1.087 2.123 1.291 58 55 46
1.088 2.123 1.293 60 58 46
1.088 2.121 1.294 60 58 46
1.088 2.120 1.296 62 58 47
1.084 2.123 1.296 58 57 48
1.087 2.124 1.296 59 54 46
1.081 2.120 1.300 59 55 44
1.085 2.119 1.304 62 58 47
1.084 2.121 1.298 58 57 48
1.084 2.123 1.298 56 53 44
1.088 2.123 1.298 57 55 44
1.087 2.124 1.298 57 55 43
1.088 2.121 1.299 64 59 48
1.085 2.124 1.299 54 52 42
1.084 2.124 1.303 56 53 44
1.088 2.124 1.300 56 53 44
1.087 2.125 1.302 56 53 44
1.087 2.125 1.303 57 55 45
1.083 2.113 1.310 58 56 45
1.084 2.114 1.310 62 58 48
1.087 2.120 1.310 61 59 49
1.084 2.118 1.311 66 62 51
1.082 2.121 1.306 56 53 44
1.085 2.124 1.304 57 55 45
1.088 2.124 1.304 62 58 47
1.088 2.124 1.305 60 57 48
1.085 2.125 1.305 56 53 44
1.087 2.125 1.305 60 57 48
1.084 2.125 1.308 56 53 44
1.083 2.123 1.310 56 53 44
1.082 2.121 1.311 56 53 44
1.088 2.121 1.310 61 57 46
1.088 2.124 1.309 60 58 46
1.088 2.125 1.309 60 58 46
1.088 2.125 1.309 58 56 44
1.087 2.125 1.310 58 56 44
1.087 2.125 1.310 56 53 44
1.085 2.126 1.311 56 53 44
1.077 2.166 1.293 137 120 101
1.084 2.124 1.314 57 52 43
1.088 2.123 1.313 61 56 45
1.088 2.124 1.315 60 57 48
1.084 2.125 1.315 56 52 42
1.088 2.125 1.313 60 57 48
1.087 2.125 1.314 57 55 45
1.088 2.126 1.313 57 55 45
1.084 2.126 1.315 56 53 44
1.085 2.126 1.315 56 53 44
1.088 2.126 1.316 58 56 44
1.088 2.127 1.316 58 54 44
1.088 2.123 1.319 60 58 46
1.088 2.125 1.317 62 58 47
1.084 2.126 1.316 56 54 42
1.085 2.126 1.316 57 55 43
1.087 2.126 1.316 58 54 44
1.084 2.127 1.319 57 55 43
1.087 2.127 1.320 60 55 46
1.088 2.127 1.320 57 55 45
1.079 2.120 1.322 56 53 44
1.079 2.120 1.327 57 52 43
1.081 2.124 1.322 58 54 43
1.084 2.127 1.321 57 55 43
1.082 2.125 1.322 56 54 42
1.087 2.125 1.321 60 56 45
1.087 2.126 1.321 59 58 48
1.087 2.127 1.321 60 56 47
1.088 2.126 1.322 59 58 48
1.084 2.127 1.325 60 56 47
1.082 2.125 1.327 54 51 41
1.087 2.127 1.325 60 57 48
1.088 2.127 1.326 60 58 48
1.087 2.126 1.327 60 58 48
1.085 2.129 1.322 60 56 47
1.087 2.129 1.323 60 57 48
1.085 2.129 1.326 60 57 48
1.084 2.129 1.327 61 57 46
1.087 2.130 1.327 63 62 50
1.087 2.130 1.327 59 58 47
1.078 2.123 1.334 56 54 42
1.082 2.126 1.332 55 52 43
1.087 2.126 1.332 63 62 50
1.082 2.127 1.334 58 55 46
1.078 2.124 1.339 54 51 41
1.084 2.125 1.344 63 60 51
1.084 2.130 1.332 55 52 43
1.085 2.130 1.328 59 58 47
1.087 2.129 1.328 63 62 50
1.087 2.130 1.329 60 57 48
1.085 2.130 1.328 55 52 43
1.087 2.130 1.331 60 57 48
1.085 2.130 1.332 57 55 45
1.087 2.131 1.331 57 55 45
1.084 2.130 1.334 57 54 44
1.088 2.129 1.333 60 57 48
1.087 2.130 1.335 57 55 45
1.083 2.130 1.338 59 55 45
1.087 2.130 1.337 57 55 45
1.085 2.130 1.337 55 53 41
1.085 2.130 1.338 55 53 41
1.087 2.129 1.339 57 55 45
1.084 2.130 1.339 55 53 41
1.081 2.129 1.340 58 54 44
1.083 2.130 1.341 55 53 41
1.085 2.131 1.340 55 52 43
1.085 2.130 1.341 58 54 43
1.087 2.130 1.340 58 54 43
1.085 2.130 1.344 58 54 43
1.084 2.130 1.344 55 52 43
1.089 2.117 1.281 59 56 47
1.089 2.120 1.280 57 55 44
1.089 2.119 1.282 56 55 45
1.089 2.121 1.280 57 55 44
1.089 2.120 1.287 58 56 43
1.089 2.121 1.288 61 57 46
1.089 2.123 1.297 57 55 44
1.089 2.123 1.298 64 59 48
1.089 2.123 1.302 59 56 47
1.089 2.123 1.305 62 58 47
1.073 2.112 1.383 57 56 44
1.073 2.112 1.392 61 57 46
1.070 2.109 1.405 61 59 48
1.076 2.123 1.350 55 52 43
1.077 2.124 1.351 58 55 46
1.078 2.126 1.351 53 51 42
1.082 2.121 1.345 58 55 46
1.084 2.124 1.345 57 56 44
1.084 2.125 1.347 57 55 45
1.084 2.127 1.351 56 55 44
1.079 2.127 1.353 58 55 47
1.084 2.126 1.357 60 55 44
1.084 2.131 1.345 57 52 43
1.085 2.130 1.347 59 55 44
1.084 2.131 1.349 56 54 42
1.082 2.130 1.351 57 52 43
1.085 2.130 1.350 60 55 44
1.084 2.130 1.349 56 54 42
1.083 2.130 1.352 53 51 41
1.083 2.131 1.356 55 52 43
1.084 2.131 1.356 55 52 43
1.084 2.130 1.353 58 54 43
1.082 2.131 1.358 57 55 44
1.084 2.129 1.357 59 55 44
1.081 2.120 1.362 63 60 51
1.073 2.123 1.363 58 54 44
1.079 2.120 1.367 57 55 45
1.081 2.123 1.365 56 55 44
1.083 2.126 1.368 59 55 44
1.075 2.125 1.371 60 55 46
1.072 2.123 1.373 53 51 42
1.079 2.123 1.374 60 55 44
1.078 2.130 1.363 53 51 41
1.083 2.130 1.363 55 53 41
1.083 2.130 1.363 55 52 43
1.083 2.130 1.367 54 52 41
1.081 2.130 1.368 55 52 43
1.078 2.130 1.369 55 52 43
1.067 2.115 1.381 55 54 44
1.066 2.113 1.382 57 56 46
1.071 2.120 1.386 58 55 47
1.072 2.124 1.386 53 51 41
1.077 2.118 1.382 63 58 47
1.077 2.119 1.387 60 55 44
1.073 2.113 1.391 65 61 48
1.071 2.123 1.397 55 52 43
1.072 2.113 1.398 63 58 47
1.073 2.115 1.399 61 57 46
1.072 2.113 1.405 63 59 48
1.071 2.109 1.409 63 58 44
1.071 2.108 1.411 63 58 44
1.072 2.111 1.411 63 59 48
1.070 2.106 1.413 66 64 52
1.069 2.107 1.412 63 61 48
1.071 2.107 1.412 64 62 51
1.070 2.105 1.416 66 64 52
1.071 2.106 1.415 62 60 48
1.071 2.109 1.412 63 58 46
1.072 2.109 1.413 63 58 46
1.064 2.101 1.418 56 55 43
1.070 2.103 1.417 62 60 48
1.070 2.102 1.417 59 58 48
1.072 2.103 1.417 60 59 48
1.070 2.102 1.419 59 58 48
1.072 2.102 1.419 60 60 46
1.070 2.101 1.421 60 58 47
1.072 2.102 1.421 60 58 46
1.070 2.101 1.423 60 58 47
1.072 2.101 1.423 60 58 46
1.072 2.106 1.417 60 59 48
1.072 2.106 1.417 60 59 45
1.072 2.105 1.419 60 59 45
1.071 2.111 1.417 56 55 43
1.069 2.109 1.423 56 55 43
1.072 2.107 1.413 65 61 50
1.072 2.107 1.416 61 59 48
1.072 2.101 1.423 61 58 47
1.072 2.103 1.423 60 58 46
1.072 2.102 1.423 61 56 47
1.072 2.106 1.419 60 59 45
1.072 2.105 1.422 60 58 46
1.071 2.096 1.430 61 56 45
1.071 2.095 1.433 60 57 48
1.070 2.094 1.435 60 57 48
1.071 2.091 1.439 59 56 47
1.071 2.093 1.436 57 54 45
1.073 2.096 1.430 67 62 50
1.073 2.095 1.431 67 62 50
1.075 2.084 1.435 55 49 37
1.073 2.084 1.435 55 49 37
1.076 2.084 1.439 55 49 37
1.075 2.084 1.440 48 42 31
1.079 2.083 1.440 51 45 35
1.073 2.084 1.436 55 49 37
1.075 2.084 1.439 55 49 37
1.079 2.088 1.440 59 58 46
1.082 2.082 1.439 60 58 46
1.081 2.083 1.439 58 52 42
1.082 2.088 1.440 65 63 50
1.076 2.090 1.435 64 59 48
1.075 2.091 1.435 61 59 48
1.075 2.093 1.434 63 62 50
1.075 2.096 1.433 65 61 48
1.076 2.096 1.433 65 61 48
1.075 2.093 1.435 61 59 48
1.076 2.095 1.435 65 61 50
1.077 2.095 1.434 65 61 50
1.077 2.094 1.435 67 62 49
1.077 2.093 1.435 67 62 49
1.077 2.095 1.435 61 59 48
1.077 2.096 1.435 64 60 48
1.078 2.095 1.435 61 59 47
1.076 2.089 1.438 59 57 45
1.076 2.090 1.436 64 59 48
1.076 2.089 1.439 58 56 46
1.077 2.089 1.438 58 56 46
1.078 2.089 1.438 68 66 55
1.077 2.091 1.436 64 59 47
1.077 2.090 1.438 64 59 47
1.079 2.091 1.438 64 62 48
1.077 2.089 1.440 55 53 44
1.079 2.089 1.439 59 58 48
1.078 2.089 1.440 59 58 48
1.079 2.091 1.439 64 62 48
1.077 2.093 1.436 64 59 47
1.077 2.094 1.436 64 59 48
1.079 2.093 1.436 62 60 48
1.078 2.093 1.438 64 59 48
1.079 2.093 1.438 62 60 48
1.077 2.095 1.436 61 59 48
1.079 2.095 1.436 58 57 45
1.078 2.096 1.436 58 57 45
1.082 2.089 1.439 65 63 50
1.081 2.089 1.440 65 63 48
1.082 2.089 1.440 65 63 50
1.083 2.089 1.440 67 65 50
1.084 2.089 1.440 67 62 50
1.083 2.091 1.439 66 64 51
1.084 2.090 1.440 63 61 46
1.084 2.089 1.440 67 62 50
1.081 2.093 1.438 66 62 49
1.081 2.095 1.436 67 65 51
1.081 2.095 1.438 67 65 51
1.082 2.095 1.438 68 66 53
1.082 2.096 1.438 68 66 53
1.082 2.093 1.439 66 64 51
1.084 2.094 1.439 66 62 49
1.083 2.093 1.440 69 65 52
1.084 2.093 1.440 65 62 49
1.082 2.096 1.439 65 62 47
1.083 2.095 1.439 68 63 51
1.085 2.093 1.440 67 65 53
1.084 2.095 1.440 67 61 51
1.070 2.100 1.424 61 59 48
1.071 2.099 1.425 61 59 48
1.070 2.097 1.428 58 56 43
1.071 2.096 1.429 61 56 45
1.070 2.108 1.425 60 56 47
1.070 2.106 1.429 60 55 46
1.072 2.101 1.435 60 58 46
1.069 2.102 1.435 59 56 47
1.067 2.103 1.438 60 55 46
1.069 2.105 1.435 59 56 47
1.073 2.097 1.427 63 58 46
1.072 2.099 1.427 62 58 47
1.073 2.100 1.428 65 61 50
1.072 2.101 1.425 61 58 47
1.072 2.102 1.424 61 56 47
1.073 2.101 1.427 66 62 51
1.072 2.096 1.429 63 58 46
1.073 2.096 1.429 63 58 46
1.073 2.100 1.429 65 61 50
1.075 2.099 1.429 64 62 51
1.073 2.097 1.430 64 62 48
1.075 2.096 1.431 64 62 48
1.073 2.101 1.431 64 59 48
1.076 2.097 1.434 64 60 49
1.073 2.100 1.433 61 59 48
1.075 2.099 1.433 61 59 48
1.076 2.099 1.433 61 59 48
1.076 2.096 1.435 64 60 48
1.077 2.097 1.435 63 61 48
1.072 2.101 1.434 62 58 47
1.077 2.096 1.436 62 60 47
1.077 2.096 1.438 62 60 47
1.079 2.096 1.439 55 54 42
1.081 2.096 1.439 65 62 47
1.072 2.085 1.442 53 48 39
1.072 2.087 1.446 54 51 41
1.071 2.087 1.447 58 56 45
1.070 2.089 1.442 59 56 47
1.070 2.089 1.446 59 57 45
1.070 2.089 1.447 59 57 45
1.072 2.095 1.452 58 55 46
1.077 2.084 1.441 53 47 38
1.077 2.084 1.441 50 47 38
1.077 2.084 1.441 53 47 38
1.078 2.083 1.441 51 45 35
1.079 2.083 1.444 54 52 40
1.078 2.084 1.444 48 45 36
1.073 2.084 1.441 48 42 31
1.076 2.085 1.441 50 47 38
1.076 2.084 1.441 50 47 38
1.075 2.085 1.441 51 48 39
1.076 2.085 1.441 52 51 41
1.073 2.088 1.441 51 48 39
1.072 2.087 1.444 54 51 41
1.077 2.085 1.441 55 56 45
1.077 2.087 1.441 55 53 44
1.077 2.087 1.441 55 56 45
1.079 2.087 1.441 59 58 46
1.079 2.087 1.441 61 59 48
1.077 2.084 1.444 47 44 35
1.078 2.085 1.442 54 52 42
1.082 2.082 1.442 52 50 38
1.081 2.083 1.442 54 52 40
1.081 2.083 1.444 54 52 40
1.081 2.084 1.444 51 49 39
1.082 2.088 1.441 63 61 49
1.084 2.088 1.441 67 65 53
1.084 2.087 1.441 65 60 49
1.083 2.088 1.441 63 61 49
1.081 2.085 1.442 61 59 48
1.082 2.084 1.444 51 49 39
1.081 2.085 1.444 51 49 39
1.084 2.084 1.444 57 54 45
1.085 2.087 1.441 64 61 52
1.084 2.088 1.441 64 61 52
1.087 2.085 1.442 60 57 48
1.088 2.088 1.442 61 59 45
1.082 2.084 1.445 53 50 41
1.082 2.083 1.446 53 50 41
1.082 2.082 1.447 52 49 40
1.082 2.082 1.447 52 49 40
1.084 2.084 1.447 56 52 42
1.084 2.084 1.445 56 52 42
1.085 2.084 1.445 58 53 44
1.085 2.084 1.447 53 50 41
1.077 2.095 1.447 61 58 49
1.078 2.096 1.447 56 55 45
1.085 2.089 1.441 65 62 51
1.085 2.089 1.441 63 61 49
1.087 2.089 1.441 63 61 49
1.085 2.090 1.441 65 62 49
1.084 2.091 1.441 65 62 49
1.085 2.091 1.441 64 62 48
1.088 2.090 1.441 62 60 47
1.087 2.091 1.441 62 60 47
1.088 2.089 1.442 65 62 49
1.088 2.091 1.444 61 59 48
1.082 2.096 1.441 62 60 47
1.084 2.095 1.441 67 61 51
1.083 2.096 1.441 67 62 50
1.082 2.096 1.442 56 55 45
1.087 2.093 1.441 67 65 53
1.084 2.095 1.441 65 61 48
1.085 2.094 1.444 64 59 47
1.087 2.094 1.442 59 57 45
1.088 2.094 1.442 59 57 45
1.088 2.094 1.444 61 59 48
1.084 2.095 1.446 64 59 47
1.084 2.094 1.447 64 59 47
1.084 2.082 1.451 55 52 43
1.087 2.082 1.450 55 52 42
1.085 2.083 1.448 53 50 41
1.087 2.083 1.450 55 52 42
1.088 2.081 1.451 52 51 41
1.088 2.081 1.452 55 52 42
1.077 2.095 1.453 53 54 43
1.083 2.095 1.448 60 55 45
1.083 2.093 1.451 60 55 45
1.088 2.090 1.452 58 55 46
1.087 2.091 1.454 61 58 48
1.082 2.094 1.452 61 56 47
1.070 2.100 1.441 60 58 46
1.067 2.101 1.441 60 58 46
1.067 2.100 1.447 60 58 46
1.076 2.096 1.441 59 57 45
1.076 2.096 1.441 59 57 45
1.075 2.096 1.442 58 55 46
1.078 2.097 1.441 55 54 42
1.083 2.096 1.441 62 60 47
1.081 2.096 1.445 56 55 45
1.072 2.093 1.459 61 58 49
1.078 2.091 1.460 61 56 47
1.075 2.093 1.463 53 54 43
1.084 2.089 1.462 61 58 48
1.083 2.089 1.463 61 59 49
1.084 2.089 1.460 61 58 48
1.096 2.079 1.451 55 52 44
1.099 2.079 1.450 54 51 42
1.100 2.078 1.452 56 53 45
1.102 2.079 1.448 52 52 42
1.102 2.078 1.451 52 52 42
1.112 2.077 1.447 55 52 42
1.108 2.079 1.447 58 55 45
1.109 2.079 1.447 58 55 45
1.111 2.078 1.447 55 52 42
1.113 2.078 1.447 61 56 45
1.113 2.078 1.447 60 55 45
1.115 2.079 1.447 64 59 47
1.114 2.078 1.447 60 55 45
1.115 2.079 1.447 59 56 47
1.118 2.077 1.447 59 56 46
1.119 2.077 1.447 57 54 45
1.118 2.078 1.447 59 57 47
1.117 2.079 1.447 59 56 47
1.117 2.078 1.447 59 57 47
1.118 2.079 1.447 63 60 51
1.119 2.079 1.447 60 55 45
1.119 2.079 1.447 60 55 45
1.112 2.076 1.452 53 49 39
1.107 2.078 1.448 59 56 45
1.107 2.078 1.450 52 50 40
1.108 2.078 1.450 51 49 40
1.107 2.077 1.451 51 49 40
1.108 2.077 1.452 52 49 41
1.111 2.077 1.450 56 52 42
1.112 2.077 1.451 56 52 42
1.113 2.075 1.452 53 49 39
1.115 2.076 1.451 55 52 43
1.119 2.076 1.448 57 54 45
1.119 2.076 1.450 57 54 45
1.117 2.075 1.451 50 47 38
1.117 2.075 1.452 50 47 38
1.119 2.075 1.451 52 51 41
1.115 2.077 1.450 59 54 45
1.114 2.077 1.450 59 54 45
1.119 2.077 1.448 59 56 46
1.113 2.075 1.453 51 48 39
1.117 2.079 1.463 60 58 46
1.121 2.077 1.447 61 58 49
1.120 2.077 1.447 59 56 47
1.124 2.077 1.447 59 56 46
1.120 2.078 1.447 59 57 45
1.121 2.079 1.447 61 59 47
1.123 2.078 1.447 62 59 49
1.124 2.078 1.447 62 59 49
1.123 2.079 1.447 61 59 47
1.125 2.077 1.447 62 59 50
1.125 2.077 1.447 62 59 50
1.125 2.077 1.447 60 57 48
1.130 2.076 1.447 59 57 45
1.130 2.077 1.447 59 57 45
1.132 2.072 1.451 59 57 47
1.133 2.072 1.451 57 54 45
1.135 2.071 1.452 52 51 42
1.130 2.072 1.452 55 53 43
1.131 2.071 1.452 52 51 42
1.131 2.071 1.453 51 48 39
1.135 2.071 1.453 49 48 39
1.124 2.073 1.450 56 53 44
1.120 2.075 1.450 52 51 41
1.124 2.076 1.450 59 54 45
1.120 2.075 1.451 54 51 42
1.125 2.075 1.450 59 54 45
1.127 2.075 1.448 56 54 44
1.126 2.076 1.448 61 58 49
1.127 2.075 1.450 56 54 44
1.125 2.073 1.452 56 53 44
1.123 2.077 1.448 61 58 49
1.124 2.078 1.448 62 59 49
1.125 2.077 1.448 60 57 48
1.126 2.077 1.448 63 61 48
1.127 2.077 1.448 63 61 48
1.125 2.078 1.448 63 61 49
1.125 2.078 1.448 64 59 49
1.127 2.079 1.450 59 57 44
1.125 2.079 1.452 61 59 47
1.129 2.073 1.450 56 54 44
1.130 2.073 1.450 58 56 46
1.131 2.073 1.450 59 57 45
1.131 2.073 1.450 59 57 45
1.130 2.076 1.448 59 57 45
1.131 2.075 1.450 59 57 45
1.129 2.072 1.451 58 56 46
1.130 2.072 1.452 55 53 43
1.133 2.072 1.450 59 57 47
1.132 2.073 1.450 58 56 46
1.136 2.073 1.448 62 59 48
1.136 2.073 1.450 62 59 48
1.133 2.075 1.448 62 60 49
1.133 2.076 1.448 63 60 51
1.135 2.075 1.448 62 59 48
1.136 2.076 1.450 64 62 49
1.129 2.077 1.448 59 57 45
1.130 2.077 1.450 66 61 50
1.131 2.077 1.448 61 59 48
1.131 2.077 1.450 66 61 50
1.131 2.077 1.450 66 61 50
1.130 2.078 1.448 63 59 46
1.129 2.079 1.450 62 60 47
1.129 2.078 1.451 62 60 47
1.131 2.078 1.451 62 59 46
1.131 2.078 1.452 62 59 46
1.132 2.077 1.448 61 59 48
1.133 2.077 1.450 63 62 49
1.135 2.077 1.450 63 62 49
1.132 2.077 1.451 65 62 51
1.133 2.077 1.451 61 60 46
1.136 2.077 1.452 65 63 52
1.136 2.078 1.452 65 63 52
1.130 2.078 1.453 66 61 50
1.131 2.078 1.452 62 59 46
1.129 2.079 1.454 66 61 50
1.135 2.077 1.452 62 60 49
1.133 2.078 1.453 62 60 49
1.133 2.078 1.454 62 60 49
1.137 2.072 1.451 58 56 46
1.137 2.071 1.452 56 52 44
1.138 2.072 1.451 56 52 44
1.142 2.072 1.450 63 61 49
1.143 2.069 1.452 59 57 47
1.143 2.070 1.452 59 57 47
1.142 2.072 1.451 58 56 46
1.143 2.071 1.451 58 56 46
1.143 2.071 1.451 59 57 47
1.138 2.070 1.453 52 49 42
1.138 2.071 1.452 56 52 44
1.147 2.070 1.450 56 57 46
1.144 2.072 1.450 61 59 49
1.147 2.071 1.450 56 57 46
1.148 2.072 1.450 64 62 51
1.148 2.070 1.451 59 59 49
1.145 2.071 1.451 61 59 49
1.150 2.070 1.450 59 60 49
1.149 2.071 1.450 64 62 52
1.149 2.071 1.450 59 60 49
1.151 2.072 1.450 66 64 51
1.151 2.069 1.451 59 60 49
1.150 2.070 1.451 59 60 49
1.151 2.071 1.451 66 64 52
1.149 2.067 1.452 59 57 48
1.147 2.069 1.452 59 59 49
1.148 2.069 1.452 59 59 49
1.137 2.072 1.450 61 59 49
1.139 2.072 1.448 62 61 49
1.138 2.073 1.448 62 59 48
1.138 2.073 1.450 62 61 49
1.137 2.076 1.448 64 62 49
1.137 2.075 1.450 63 61 49
1.137 2.076 1.450 63 61 49
1.138 2.076 1.450 65 62 51
1.139 2.076 1.450 65 62 51
1.137 2.072 1.451 61 59 49
1.137 2.076 1.451 63 62 50
1.138 2.076 1.451 65 62 51
1.141 2.072 1.448 62 61 49
1.141 2.072 1.450 63 61 49
1.142 2.073 1.450 65 62 49
1.143 2.072 1.450 66 63 50
1.143 2.072 1.450 65 62 51
1.141 2.075 1.448 66 63 52
1.141 2.075 1.450 66 63 52
1.142 2.075 1.450 65 62 49
1.141 2.076 1.452 65 60 48
1.142 2.076 1.452 65 60 48
1.143 2.075 1.451 66 62 49
1.143 2.075 1.451 66 62 49
1.143 2.076 1.451 66 63 50
1.137 2.077 1.451 63 62 50
1.137 2.077 1.452 63 61 49
1.141 2.076 1.452 64 62 49
1.143 2.076 1.456 62 58 47
1.139 2.077 1.452 64 62 49
1.138 2.077 1.454 62 59 48
1.144 2.073 1.450 69 64 52
1.145 2.073 1.450 64 62 50
1.147 2.072 1.450 64 61 52
1.148 2.072 1.450 64 61 52
1.147 2.073 1.451 66 63 52
1.148 2.073 1.451 64 62 51
1.147 2.075 1.451 66 63 52
1.147 2.075 1.452 66 63 50
1.149 2.072 1.448 64 61 52
1.149 2.072 1.450 66 64 52
1.150 2.072 1.450 70 66 53
1.149 2.075 1.450 64 62 51
1.149 2.072 1.451 70 66 53
1.149 2.073 1.451 66 64 52
1.151 2.072 1.451 65 62 49
1.150 2.073 1.452 66 64 52
1.145 2.075 1.452 63 61 49
1.144 2.076 1.452 63 61 49
1.144 2.076 1.453 62 58 47
1.149 2.073 1.452 64 62 50
1.150 2.073 1.452 66 64 52
1.149 2.075 1.454 62 61 49
1.124 2.079 1.457 59 56 47
1.121 2.079 1.459 59 56 47
1.121 2.079 1.462 61 59 47
1.126 2.077 1.460 62 58 47
1.129 2.078 1.457 62 58 47
1.132 2.077 1.458 62 60 49
1.136 2.076 1.460 62 58 47
1.131 2.077 1.464 62 60 49
1.135 2.077 1.463 62 58 47
1.125 2.077 1.464 62 58 47
1.133 2.076 1.464 62 58 49
1.143 2.076 1.457 66 61 50
1.143 2.076 1.458 66 61 50
1.142 2.076 1.459 65 60 49
1.137 2.077 1.457 62 59 48
1.137 2.077 1.458 62 59 48
1.147 2.073 1.458 62 61 49
1.151 2.072 1.458 66 61 50
1.151 2.072 1.459 66 61 50
1.150 2.073 1.459 61 58 49
1.145 2.073 1.460 57 55 44
1.149 2.072 1.462 60 58 46
1.149 2.073 1.464 60 58 46
1.139 2.075 1.464 65 60 49
1.144 2.072 1.464 57 55 44
1.089 2.085 1.444 62 57 46
1.091 2.085 1.444 61 56 45
1.089 2.088 1.442 62 61 49
1.089 2.088 1.442 62 60 48
1.090 2.088 1.442 64 62 50
1.091 2.087 1.444 63 61 49
1.090 2.088 1.444 64 62 50
1.095 2.085 1.444 65 60 49
1.093 2.088 1.444 66 62 51
1.090 2.084 1.446 56 54 42
1.090 2.083 1.447 56 53 44
1.094 2.084 1.445 63 59 48
1.094 2.084 1.446 62 59 49
1.094 2.083 1.447 62 59 49
1.089 2.084 1.445 62 57 46
1.089 2.084 1.445 56 54 42
1.089 2.085 1.445 62 57 46
1.094 2.084 1.445 63 59 48
1.093 2.085 1.445 61 56 45
1.096 2.084 1.445 62 59 49
1.095 2.085 1.445 62 59 49
1.094 2.087 1.445 61 59 48
1.093 2.088 1.445 62 58 47
1.095 2.087 1.445 65 60 49
1.096 2.087 1.445 61 59 49
1.097 2.082 1.446 58 55 44
1.097 2.083 1.446 59 56 47
1.096 2.084 1.446 61 59 49
1.100 2.084 1.446 63 59 48
1.099 2.082 1.447 58 55 44
1.101 2.081 1.446 59 55 46
1.101 2.083 1.446 60 58 46
1.101 2.084 1.446 62 57 46
1.103 2.083 1.446 62 58 47
1.102 2.084 1.446 62 58 47
1.101 2.081 1.447 55 53 44
1.101 2.082 1.447 59 55 46
1.102 2.081 1.447 55 53 44
1.101 2.083 1.447 60 58 46
1.096 2.084 1.445 61 59 49
1.097 2.084 1.445 64 59 50
1.097 2.084 1.446 64 59 50
1.099 2.084 1.445 63 59 48
1.097 2.087 1.445 62 59 50
1.096 2.087 1.446 61 59 49
1.097 2.087 1.446 60 59 45
1.099 2.087 1.446 61 59 47
1.100 2.087 1.446 62 58 47
1.101 2.084 1.446 64 59 50
1.101 2.085 1.446 62 58 47
1.101 2.087 1.446 62 58 47
1.102 2.085 1.447 61 56 45
1.103 2.085 1.447 62 58 47
1.101 2.087 1.447 60 55 45
1.101 2.087 1.447 62 56 46
1.101 2.088 1.447 62 56 46
1.089 2.090 1.441 63 61 48
1.089 2.089 1.442 62 60 48
1.089 2.089 1.442 62 60 48
1.089 2.089 1.444 61 57 46
1.091 2.089 1.444 64 59 48
1.089 2.090 1.444 61 57 46
1.089 2.091 1.444 58 53 42
1.093 2.089 1.444 66 62 51
1.090 2.089 1.445 61 57 46
1.091 2.089 1.446 61 56 45
1.090 2.090 1.447 61 56 45
1.093 2.089 1.445 65 59 50
1.094 2.089 1.445 62 58 47
1.093 2.089 1.446 61 56 47
1.095 2.089 1.445 62 59 48
1.096 2.089 1.445 62 59 48
1.096 2.089 1.447 62 58 47
1.097 2.089 1.446 60 59 45
1.096 2.089 1.447 60 58 46
1.097 2.089 1.447 60 58 46
1.089 2.082 1.448 56 53 44
1.090 2.081 1.451 54 51 42
1.090 2.081 1.452 53 52 42
1.094 2.082 1.448 53 50 42
1.095 2.081 1.448 53 50 42
1.099 2.081 1.448 54 51 42
1.100 2.088 1.450 60 58 46
1.101 2.088 1.448 62 56 46
1.103 2.087 1.450 58 56 45
1.101 2.087 1.452 58 56 45
1.097 2.087 1.452 60 58 46
1.089 2.090 1.448 61 56 45
1.089 2.090 1.452 61 56 45
1.096 2.089 1.448 62 58 47
1.095 2.089 1.450 58 55 45
1.094 2.089 1.452 60 58 46
1.093 2.089 1.454 60 58 46
1.105 2.082 1.446 60 58 46
1.108 2.082 1.446 62 60 47
1.106 2.084 1.446 64 59 49
1.106 2.081 1.447 62 59 48
1.106 2.082 1.447 60 58 46
1.106 2.081 1.447 62 59 48
1.107 2.082 1.447 62 58 47
1.108 2.082 1.447 62 60 47
1.106 2.084 1.447 64 59 49
1.107 2.083 1.447 62 58 47
1.107 2.084 1.447 61 59 47
1.108 2.084 1.447 61 55 45
1.108 2.081 1.446 61 59 47
1.112 2.081 1.446 62 59 48
1.109 2.081 1.447 61 59 47
1.112 2.081 1.447 64 59 49
1.111 2.082 1.447 64 59 49
1.109 2.083 1.447 64 59 49
1.108 2.084 1.447 62 57 46
1.111 2.083 1.447 64 59 49
1.112 2.083 1.447 63 59 48
1.105 2.084 1.447 62 58 47
1.106 2.085 1.447 62 57 48
1.107 2.084 1.447 62 57 46
1.107 2.084 1.447 61 55 45
1.109 2.085 1.447 61 56 47
1.111 2.084 1.447 62 59 48
1.113 2.081 1.447 66 61 50
1.113 2.081 1.447 62 57 46
1.114 2.081 1.447 64 59 47
1.114 2.082 1.447 62 57 46
1.113 2.083 1.447 62 60 49
1.113 2.083 1.447 62 57 46
1.114 2.083 1.447 62 59 48
1.117 2.082 1.447 60 57 48
1.119 2.081 1.447 63 60 51
1.112 2.083 1.448 64 59 49
1.111 2.084 1.448 62 59 48
1.105 2.084 1.450 62 57 48
1.105 2.087 1.450 60 55 46
1.108 2.084 1.451 62 55 45
1.107 2.084 1.452 62 55 45
1.108 2.085 1.448 61 56 47
1.112 2.084 1.452 59 55 45
1.109 2.084 1.454 60 57 48
1.106 2.084 1.456 59 57 45
1.111 2.084 1.452 59 55 45
1.113 2.083 1.448 59 56 47
1.113 2.084 1.450 59 57 45
1.114 2.083 1.448 62 59 48
1.115 2.083 1.448 63 59 46
1.113 2.084 1.452 59 57 45
1.118 2.082 1.448 60 57 48
1.119 2.082 1.448 62 59 49
1.119 2.082 1.448 62 58 47
1.119 2.082 1.450 62 59 49
1.118 2.083 1.450 62 59 49
1.117 2.082 1.452 62 57 46
1.115 2.083 1.453 62 58 49
1.117 2.082 1.453 62 57 46
1.119 2.082 1.453 61 56 47
1.096 2.087 1.459 59 57 45
1.094 2.085 1.463 59 58 48
1.096 2.087 1.458 59 57 45
1.101 2.085 1.457 60 55 45
1.103 2.084 1.460 59 57 45
1.097 2.084 1.462 62 58 48
1.099 2.084 1.460 60 55 45
1.090 2.089 1.459 60 55 46
1.108 2.084 1.458 60 57 48
1.112 2.081 1.464 60 57 48
1.114 2.082 1.457 62 58 49
1.113 2.083 1.459 59 57 45
1.113 2.083 1.459 59 57 45
1.119 2.081 1.457 61 56 47
1.107 2.081 1.466 60 57 48
1.121 2.081 1.447 63 61 49
1.120 2.081 1.448 62 58 47
1.121 2.081 1.448 63 61 49
1.123 2.081 1.450 63 59 48
1.124 2.081 1.450 62 60 49
1.121 2.082 1.451 63 59 48
1.120 2.082 1.452 64 59 47
1.125 2.081 1.450 62 60 49
1.126 2.081 1.451 65 60 49
1.125 2.081 1.453 61 59 47
1.168 2.064 1.452 54 54 45
1.173 2.064 1.451 61 59 50
1.174 2.064 1.452 61 59 50
1.168 2.063 1.453 54 54 45
1.169 2.063 1.454 53 53 44
1.173 2.063 1.452 58 57 48
1.178 2.064 1.450 62 61 51
1.179 2.063 1.450 62 61 51
1.179 2.063 1.451 58 56 46
1.183 2.063 1.448 64 62 52
1.184 2.063 1.448 61 59 50
1.184 2.060 1.451 58 58 49
1.179 2.060 1.454 55 55 46
1.180 2.060 1.456 55 55 46
1.179 2.061 1.452 58 56 46
1.179 2.061 1.453 58 56 46
1.179 2.060 1.454 57 57 48
1.180 2.060 1.453 57 57 48
1.160 2.067 1.450 62 60 47
1.157 2.066 1.451 62 60 50
1.156 2.067 1.451 62 63 52
1.156 2.066 1.452 62 60 50
1.154 2.070 1.450 62 61 49
1.155 2.069 1.450 64 62 52
1.155 2.070 1.450 62 61 49
1.154 2.071 1.450 66 64 52
1.153 2.072 1.450 67 65 53
1.154 2.072 1.450 69 65 50
1.155 2.071 1.450 66 63 54
1.155 2.072 1.450 65 61 49
1.153 2.069 1.451 61 59 49
1.153 2.069 1.452 61 59 49
1.154 2.072 1.451 69 65 50
1.155 2.072 1.452 66 63 54
1.156 2.069 1.450 62 63 52
1.159 2.069 1.450 65 63 52
1.159 2.070 1.450 65 63 52
1.156 2.071 1.450 66 63 54
1.157 2.071 1.450 65 62 53
1.160 2.071 1.450 64 62 48
1.157 2.072 1.451 62 59 50
1.156 2.072 1.452 66 63 54
1.159 2.071 1.451 66 62 51
1.153 2.066 1.452 59 56 47
1.154 2.066 1.452 52 52 42
1.157 2.065 1.452 59 55 46
1.159 2.065 1.453 52 50 41
1.160 2.072 1.453 63 61 49
1.159 2.072 1.454 64 62 50
1.161 2.067 1.448 67 65 53
1.161 2.067 1.448 67 65 53
1.161 2.067 1.450 63 62 50
1.162 2.066 1.450 63 62 50
1.161 2.065 1.452 55 54 42
1.167 2.065 1.448 62 59 46
1.167 2.065 1.450 58 55 47
1.166 2.067 1.448 65 63 52
1.166 2.066 1.450 65 63 52
1.167 2.067 1.448 65 63 50
1.167 2.065 1.451 54 54 45
1.161 2.069 1.448 62 60 47
1.161 2.070 1.450 64 62 48
1.161 2.070 1.450 67 65 53
1.163 2.069 1.448 65 63 52
1.162 2.069 1.450 67 65 53
1.163 2.069 1.450 65 63 52
1.161 2.072 1.452 63 61 49
1.161 2.072 1.452 62 59 48
1.163 2.071 1.451 65 62 51
1.162 2.072 1.451 64 62 50
1.165 2.069 1.448 65 64 54
1.165 2.069 1.450 65 64 54
1.165 2.070 1.450 65 63 52
1.166 2.070 1.450 64 62 48
1.167 2.070 1.448 64 62 48
1.165 2.071 1.450 65 63 52
1.167 2.070 1.451 68 63 51
1.167 2.070 1.452 63 61 48
1.165 2.071 1.451 65 63 52
1.167 2.071 1.452 63 61 48
1.163 2.065 1.452 52 53 42
1.162 2.065 1.452 52 53 42
1.163 2.065 1.453 55 55 45
1.163 2.072 1.453 62 60 47
1.166 2.071 1.452 63 58 48
1.166 2.071 1.453 63 58 48
1.165 2.072 1.453 62 60 47
1.153 2.072 1.451 69 65 50
1.153 2.073 1.451 65 62 49
1.155 2.073 1.452 67 62 50
1.157 2.072 1.452 66 63 54
1.155 2.072 1.452 66 62 49
1.155 2.072 1.453 67 62 50
1.154 2.073 1.454 66 62 49
1.160 2.072 1.452 63 61 49
1.179 2.065 1.447 65 62 53
1.179 2.065 1.447 65 61 52
1.180 2.065 1.447 65 64 52
1.183 2.065 1.447 59 57 48
1.171 2.065 1.448 65 63 52
1.172 2.065 1.450 61 58 50
1.172 2.065 1.450 65 64 54
1.169 2.066 1.448 65 63 52
1.168 2.067 1.448 65 63 50
1.172 2.067 1.450 64 61 52
1.173 2.065 1.448 68 64 51
1.175 2.065 1.448 65 63 51
1.174 2.065 1.448 68 64 51
1.175 2.065 1.450 65 63 51
1.173 2.066 1.448 67 62 51
1.173 2.067 1.448 64 61 52
1.173 2.067 1.450 65 62 51
1.174 2.066 1.448 68 64 51
1.174 2.067 1.448 63 61 49
1.175 2.067 1.448 65 61 50
1.175 2.067 1.450 63 61 49
1.173 2.065 1.451 61 58 50
1.169 2.069 1.450 65 62 51
1.168 2.070 1.450 63 58 48
1.171 2.069 1.450 65 62 51
1.169 2.069 1.451 65 63 52
1.168 2.070 1.451 63 58 48
1.171 2.070 1.452 63 58 49
1.172 2.070 1.452 60 57 48
1.173 2.069 1.450 62 60 50
1.173 2.069 1.451 62 60 50
1.173 2.069 1.451 65 62 51
1.175 2.070 1.452 64 61 50
1.169 2.070 1.452 63 58 49
1.169 2.070 1.453 63 58 49
1.168 2.070 1.456 58 55 46
1.175 2.069 1.453 58 55 46
1.174 2.069 1.454 59 56 47
1.177 2.065 1.448 61 60 51
1.179 2.065 1.448 65 61 52
1.177 2.066 1.448 65 61 50
1.178 2.066 1.448 65 62 53
1.179 2.067 1.450 65 61 51
1.179 2.067 1.450 67 62 51
1.181 2.065 1.448 59 57 48
1.183 2.065 1.448 64 62 51
1.184 2.065 1.448 64 62 51
1.183 2.065 1.450 66 64 52
1.181 2.066 1.448 65 61 50
1.180 2.067 1.448 67 62 51
1.180 2.067 1.450 67 62 51
1.183 2.066 1.448 66 64 52
1.184 2.066 1.450 62 61 49
1.181 2.067 1.451 61 59 48
1.183 2.067 1.451 62 61 49
1.178 2.069 1.451 61 58 49
1.177 2.069 1.452 64 61 50
1.180 2.069 1.452 63 58 46
1.179 2.067 1.454 63 58 46
1.179 2.067 1.456 62 58 47
1.180 2.060 1.457 55 54 44
1.155 2.072 1.459 64 59 50
1.155 2.072 1.460 64 59 50
1.163 2.071 1.457 59 56 47
1.161 2.070 1.462 59 56 47
1.161 2.071 1.460 59 56 47
1.167 2.070 1.460 58 55 46
1.166 2.069 1.463 60 58 46
1.157 2.072 1.457 64 62 50
1.155 2.071 1.464 62 58 47
1.172 2.067 1.459 58 56 45
1.173 2.069 1.457 59 56 47
1.172 2.067 1.460 58 56 45
1.178 2.067 1.458 62 58 47
1.184 2.066 1.458 58 57 47
1.177 2.066 1.460 62 58 47
1.183 2.066 1.460 61 60 50
1.185 2.064 1.447 64 62 52
1.188 2.063 1.447 64 62 52
1.186 2.064 1.447 64 62 52
1.190 2.064 1.447 64 61 52
1.191 2.064 1.447 66 63 54
1.191 2.063 1.447 65 62 53
1.191 2.064 1.447 67 62 51
1.192 2.063 1.447 65 62 53
1.196 2.064 1.447 61 60 51
1.195 2.064 1.447 64 59 48
1.196 2.064 1.447 64 61 52
1.197 2.061 1.447 61 60 51
1.197 2.063 1.447 61 60 51
1.197 2.064 1.447 65 60 51
1.197 2.064 1.447 63 60 51
1.200 2.063 1.447 64 60 51
1.198 2.064 1.447 64 60 51
1.189 2.060 1.452 60 58 49
1.185 2.061 1.450 61 59 50
1.188 2.063 1.448 64 62 52
1.185 2.060 1.451 58 58 49
1.190 2.060 1.451 60 58 49
1.189 2.061 1.452 60 60 51
1.185 2.060 1.452 58 58 49
1.185 2.059 1.456 54 54 45
1.190 2.059 1.454 59 56 47
1.190 2.059 1.456 59 56 47
1.195 2.060 1.451 60 59 50
1.197 2.060 1.450 61 60 51
1.198 2.060 1.450 61 60 51
1.200 2.060 1.451 54 53 44
1.200 2.059 1.452 54 53 44
1.194 2.060 1.448 60 59 50
1.192 2.061 1.448 62 60 51
1.194 2.060 1.450 60 59 50
1.197 2.061 1.450 61 60 51
1.198 2.060 1.448 61 60 51
1.195 2.059 1.452 56 54 45
1.195 2.059 1.454 56 54 45
1.208 2.060 1.447 63 62 50
1.201 2.061 1.447 69 66 54
1.202 2.061 1.447 65 63 54
1.203 2.060 1.447 65 63 54
1.203 2.060 1.447 60 60 51
1.201 2.063 1.447 64 61 50
1.201 2.064 1.447 64 61 50
1.202 2.064 1.447 66 63 52
1.203 2.063 1.447 66 63 54
1.203 2.064 1.447 65 60 50
1.206 2.061 1.447 63 61 50
1.207 2.061 1.447 63 61 50
1.208 2.061 1.447 66 65 51
1.208 2.061 1.447 61 59 47
1.204 2.063 1.447 66 63 54
1.207 2.064 1.447 63 60 47
1.208 2.064 1.447 63 60 47
1.209 2.060 1.447 59 59 49
1.213 2.060 1.447 65 62 50
1.214 2.060 1.447 65 62 50
1.213 2.060 1.447 66 64 53
1.214 2.060 1.447 65 62 50
1.214 2.059 1.447 63 62 50
1.209 2.060 1.447 63 62 50
1.212 2.060 1.447 66 64 53
1.210 2.061 1.447 59 59 47
1.209 2.063 1.447 61 59 47
1.209 2.063 1.447 63 62 50
1.210 2.063 1.447 60 59 49
1.212 2.063 1.447 60 59 49
1.214 2.063 1.446 63 60 47
1.214 2.061 1.447 63 60 47
1.214 2.060 1.447 63 60 47
1.215 2.060 1.447 66 65 52
1.213 2.063 1.447 60 58 47
1.215 2.063 1.447 64 62 50
1.212 2.055 1.454 59 54 45
1.215 2.055 1.454 55 53 43
1.201 2.058 1.452 54 53 44
1.204 2.060 1.450 59 59 50
1.204 2.058 1.452 59 59 50
1.206 2.058 1.452 57 57 48
1.206 2.063 1.448 63 60 47
1.204 2.064 1.448 63 60 49
1.201 2.058 1.453 56 54 45
1.201 2.056 1.456 56 54 45
1.204 2.058 1.452 57 57 48
1.206 2.056 1.453 57 57 48
1.206 2.056 1.456 54 55 44
1.207 2.064 1.452 60 58 48
1.209 2.059 1.448 60 58 48
1.210 2.059 1.450 57 54 45
1.209 2.058 1.451 57 54 45
1.215 2.058 1.450 63 62 50
1.215 2.058 1.451 63 61 52
1.209 2.064 1.448 60 57 48
1.209 2.064 1.448 65 62 53
1.209 2.064 1.450 60 57 48
1.210 2.063 1.448 65 62 53
1.214 2.064 1.448 60 58 47
1.214 2.064 1.450 58 56 44
1.215 2.063 1.448 64 62 50
1.214 2.064 1.448 60 58 47
1.213 2.063 1.451 58 56 44
1.213 2.063 1.452 58 56 44
1.210 2.056 1.452 57 54 45
1.210 2.056 1.454 59 54 45
1.212 2.063 1.453 59 57 47
1.210 2.063 1.454 59 57 47
1.210 2.063 1.456 57 56 46
1.185 2.065 1.447 66 64 52
1.188 2.065 1.447 63 60 49
1.186 2.065 1.447 62 61 49
1.189 2.065 1.447 64 61 52
1.191 2.065 1.447 64 59 48
1.191 2.065 1.447 61 58 45
1.192 2.065 1.447 63 58 46
1.194 2.065 1.447 63 58 46
1.196 2.065 1.447 65 60 51
1.196 2.065 1.447 64 60 49
1.197 2.065 1.447 63 60 51
1.185 2.065 1.448 64 62 51
1.185 2.065 1.448 63 61 48
1.186 2.065 1.448 63 61 48
1.185 2.066 1.448 63 61 50
1.185 2.066 1.450 63 61 50
1.188 2.066 1.450 63 61 49
1.186 2.067 1.450 63 61 49
1.185 2.066 1.452 63 61 49
1.189 2.066 1.448 61 59 48
1.189 2.066 1.450 61 59 48
1.190 2.066 1.450 64 59 48
1.191 2.066 1.450 61 59 46
1.191 2.066 1.451 64 59 48
1.185 2.067 1.454 60 58 47
1.185 2.066 1.456 60 58 47
1.191 2.065 1.453 64 59 48
1.189 2.066 1.454 59 56 47
1.190 2.066 1.454 64 59 48
1.194 2.065 1.448 64 60 49
1.192 2.065 1.450 63 60 48
1.196 2.065 1.452 61 59 47
1.200 2.065 1.448 63 60 51
1.198 2.065 1.450 60 58 47
1.197 2.065 1.451 61 59 47
1.196 2.065 1.452 63 58 49
1.194 2.065 1.456 61 59 48
1.200 2.065 1.454 60 57 48
1.200 2.065 1.456 60 57 48
1.201 2.065 1.447 61 59 47
1.201 2.065 1.448 61 59 47
1.203 2.065 1.448 63 60 49
1.203 2.065 1.450 63 60 49
1.203 2.065 1.450 63 60 49
1.202 2.065 1.451 60 58 47
1.203 2.065 1.451 63 60 49
1.206 2.065 1.448 63 61 50
1.208 2.065 1.450 62 59 48
1.208 2.065 1.451 60 58 48
1.201 2.065 1.452 58 56 44
1.206 2.065 1.453 60 56 47
1.206 2.065 1.454 60 56 47
1.185 2.059 1.457 54 54 45
1.191 2.058 1.457 57 56 47
1.191 2.058 1.457 57 56 47
1.197 2.064 1.459 59 56 47
1.202 2.055 1.458 52 52 44
1.206 2.055 1.459 54 55 44
1.212 2.054 1.458 58 53 44
1.201 2.056 1.457 52 52 44
1.204 2.064 1.458 58 55 46
1.209 2.063 1.459 61 59 47
1.215 2.061 1.457 57 56 44
1.214 2.061 1.460 57 56 44
1.189 2.065 1.458 59 56 47
1.194 2.065 1.459 59 57 45
1.218 2.060 1.446 63 62 50
1.216 2.060 1.447 66 65 52
1.218 2.060 1.447 63 62 50
1.219 2.060 1.447 65 63 53
1.220 2.059 1.447 65 63 53
1.224 2.059 1.446 64 62 51
1.224 2.059 1.447 64 62 51
1.222 2.060 1.447 65 62 50
1.218 2.061 1.447 62 60 49
1.220 2.060 1.447 65 62 50
1.219 2.061 1.447 61 59 47
1.216 2.063 1.447 62 60 49
1.221 2.060 1.446 65 62 50
1.221 2.060 1.447 65 62 50
1.221 2.060 1.447 66 64 51
1.221 2.061 1.447 62 60 49
1.222 2.061 1.447 62 57 47
1.224 2.061 1.447 60 58 47
1.227 2.060 1.446 62 61 51
1.226 2.058 1.447 62 61 51
1.226 2.056 1.447 59 58 48
1.225 2.059 1.447 62 61 51
1.226 2.060 1.447 62 60 47
1.228 2.059 1.446 62 61 51
1.231 2.059 1.446 62 60 51
1.232 2.060 1.446 64 61 50
1.230 2.058 1.447 63 61 53
1.232 2.056 1.447 59 57 47
1.231 2.056 1.447 63 61 53
1.232 2.056 1.447 59 57 47
1.230 2.059 1.447 62 60 51
1.228 2.060 1.447 62 58 50
1.230 2.060 1.447 63 60 51
1.230 2.060 1.447 62 58 50
1.231 2.060 1.447 63 60 51
1.225 2.060 1.447 62 60 49
1.226 2.060 1.447 62 60 49
1.226 2.060 1.447 59 56 47
1.226 2.061 1.447 60 57 48
1.230 2.060 1.447 62 58 50
1.228 2.061 1.447 59 56 47
1.222 2.055 1.452 58 56 46
1.216 2.054 1.456 56 54 44
1.218 2.054 1.456 56 54 44
1.221 2.054 1.454 58 56 46
1.226 2.055 1.450 57 55 46
1.227 2.054 1.452 59 57 48
1.232 2.054 1.450 58 55 46
1.227 2.054 1.456 59 57 48
1.220 2.058 1.448 66 65 53
1.216 2.056 1.451 55 53 43
1.221 2.056 1.450 61 62 51
1.221 2.056 1.451 61 62 51
1.221 2.056 1.451 61 62 51
1.220 2.061 1.448 60 58 47
1.219 2.063 1.448 59 56 45
1.219 2.063 1.450 59 56 45
1.218 2.063 1.452 57 56 46
1.221 2.060 1.448 62 60 49
1.221 2.061 1.448 62 60 49
1.221 2.063 1.448 60 58 47
1.218 2.061 1.452 57 56 46
1.216 2.063 1.453 57 56 46
1.222 2.061 1.452 60 58 47
1.221 2.060 1.454 61 56 47
1.226 2.058 1.448 59 58 48
1.226 2.056 1.448 59 58 48
1.226 2.061 1.448 59 58 48
1.225 2.061 1.450 59 58 48
1.226 2.061 1.448 60 57 48
1.225 2.061 1.451 60 58 47
1.232 2.060 1.448 61 58 49
1.231 2.061 1.448 61 58 49
1.231 2.061 1.450 61 58 49
1.230 2.060 1.451 59 56 48
1.227 2.060 1.453 59 56 47
1.226 2.060 1.456 59 56 47
1.230 2.060 1.452 59 56 48
1.233 2.055 1.447 59 57 47
1.237 2.055 1.447 67 65 54
1.238 2.055 1.447 58 56 47
1.239 2.054 1.447 59 56 47
1.238 2.055 1.447 59 56 47
1.244 2.055 1.446 63 61 50
1.244 2.055 1.447 63 63 52
1.245 2.054 1.447 60 60 49
1.246 2.054 1.447 60 60 49
1.246 2.054 1.447 60 60 49
1.244 2.054 1.447 63 63 52
1.236 2.058 1.445 62 60 49
1.236 2.056 1.446 62 60 49
1.236 2.058 1.446 62 60 49
1.233 2.059 1.446 63 60 51
1.233 2.060 1.446 63 60 51
1.234 2.059 1.446 60 58 46
1.233 2.060 1.447 63 60 51
1.233 2.060 1.447 62 60 49
1.236 2.059 1.447 63 61 49
1.236 2.060 1.447 62 58 47
1.239 2.058 1.446 66 63 52
1.237 2.060 1.446 63 61 49
1.238 2.060 1.446 65 63 50
1.239 2.059 1.445 65 63 52
1.238 2.059 1.446 65 63 50
1.239 2.059 1.446 65 63 52
1.239 2.060 1.447 63 58 48
1.238 2.060 1.447 61 58 47
1.233 2.060 1.447 62 58 49
1.234 2.060 1.447 62 60 49
1.240 2.058 1.445 66 63 52
1.242 2.056 1.446 62 60 49
1.242 2.058 1.446 62 60 49
1.243 2.056 1.446 63 61 50
1.244 2.058 1.446 64 61 50
1.242 2.059 1.446 66 62 51
1.243 2.059 1.446 61 58 49
1.244 2.059 1.446 64 61 50
1.243 2.058 1.447 61 58 49
1.240 2.059 1.447 66 62 51
1.242 2.059 1.447 66 62 51
1.244 2.058 1.446 64 61 52
1.245 2.058 1.446 64 61 52
1.248 2.056 1.445 63 61 51
1.246 2.058 1.445 63 61 51
1.248 2.056 1.446 62 61 49
1.248 2.058 1.447 58 55 44
1.245 2.059 1.447 59 56 47
1.246 2.059 1.447 59 57 47
1.233 2.054 1.451 58 55 46
1.233 2.054 1.452 56 55 45
1.248 2.050 1.452 59 58 48
1.240 2.054 1.448 58 55 47
1.240 2.054 1.452 58 55 47
1.248 2.053 1.451 59 57 47
1.242 2.050 1.456 58 55 46
1.240 2.053 1.452 58 55 46
1.236 2.060 1.452 61 56 47
1.237 2.060 1.450 59 55 46
1.233 2.060 1.448 62 58 49
1.237 2.060 1.448 59 55 46
1.238 2.060 1.448 61 58 47
1.236 2.060 1.453 61 56 47
1.244 2.059 1.451 58 55 44
1.243 2.059 1.452 57 55 46
1.244 2.058 1.448 59 56 47
1.244 2.058 1.451 58 55 44
1.243 2.058 1.452 57 55 46
1.242 2.059 1.454 60 57 48
1.216 2.054 1.458 54 52 43
1.222 2.053 1.458 57 55 46
1.221 2.060 1.458 61 56 47
1.226 2.060 1.458 58 55 46
1.233 2.052 1.457 58 55 46
1.233 2.053 1.457 56 55 45
1.233 2.059 1.458 59 57 46
1.233 2.059 1.459 59 57 46
1.239 2.059 1.459 59 57 46
1.240 2.058 1.457 60 57 48
1.255 2.052 1.447 60 59 50
1.255 2.052 1.447 57 57 48
1.256 2.052 1.447 57 57 48
1.251 2.054 1.446 58 57 47
1.249 2.055 1.445 61 59 48
1.250 2.055 1.445 59 58 48
1.250 2.054 1.445 59 58 48
1.250 2.054 1.446 58 57 47
1.254 2.053 1.446 60 59 50
1.254 2.054 1.446 59 58 48
1.254 2.055 1.445 63 60 50
1.252 2.054 1.446 59 58 48
1.255 2.055 1.445 62 61 50
1.256 2.055 1.445 62 61 50
1.254 2.053 1.447 60 59 50
1.262 2.054 1.444 62 59 48
1.263 2.054 1.444 62 60 48
1.262 2.054 1.444 62 59 48
1.261 2.052 1.446 61 59 48
1.262 2.052 1.447 61 59 48
1.262 2.050 1.447 58 55 47
1.262 2.050 1.447 61 59 48
1.257 2.054 1.445 62 61 50
1.260 2.053 1.445 61 58 48
1.258 2.054 1.445 61 58 50
1.260 2.053 1.446 61 58 50
1.256 2.054 1.445 60 60 49
1.257 2.054 1.445 62 61 50
1.258 2.055 1.445 61 58 49
1.260 2.055 1.445 61 59 48
1.261 2.054 1.445 62 59 48
1.262 2.054 1.445 62 59 48
1.262 2.055 1.446 57 55 45
1.263 2.055 1.445 58 55 46
1.263 2.055 1.446 58 55 46
1.262 2.055 1.447 59 57 46
1.249 2.056 1.445 62 61 49
1.249 2.056 1.446 62 61 49
1.250 2.056 1.446 62 57 47
1.251 2.056 1.445 63 59 49
1.250 2.056 1.446 61 58 48
1.249 2.058 1.447 58 55 44
1.252 2.056 1.445 63 59 49
1.256 2.056 1.446 58 56 45
1.254 2.056 1.447 57 55 45
1.252 2.058 1.447 60 58 46
1.255 2.056 1.447 58 56 45
1.256 2.056 1.445 58 56 45
1.257 2.056 1.445 61 58 49
1.262 2.056 1.446 58 53 45
1.261 2.056 1.447 59 57 46
1.249 2.052 1.452 59 57 47
1.256 2.050 1.451 58 57 48
1.249 2.050 1.453 59 58 48
1.249 2.050 1.454 58 56 47
1.256 2.049 1.452 58 57 48
1.257 2.049 1.452 55 54 44
1.263 2.049 1.450 62 59 49
1.262 2.050 1.448 62 59 49
1.258 2.055 1.450 56 55 45
1.257 2.055 1.452 56 55 45
1.257 2.055 1.453 56 55 44
1.251 2.056 1.450 60 56 46
1.250 2.058 1.451 60 56 46
1.250 2.058 1.452 58 55 46
1.252 2.058 1.448 60 58 46
1.250 2.056 1.454 58 55 46
1.249 2.056 1.456 57 56 45
1.260 2.056 1.448 56 55 45
1.268 2.052 1.444 56 57 47
1.266 2.053 1.444 60 58 46
1.264 2.054 1.444 60 58 46
1.267 2.053 1.444 61 59 48
1.268 2.054 1.444 58 57 47
1.266 2.054 1.444 57 54 44
1.267 2.054 1.444 59 57 46
1.269 2.053 1.444 58 58 47
1.268 2.054 1.444 58 57 47
1.270 2.053 1.444 58 58 47
1.272 2.053 1.444 60 57 49
1.270 2.054 1.444 60 57 49
1.267 2.052 1.445 56 57 47
1.268 2.052 1.445 56 57 47
1.268 2.050 1.445 56 56 47
1.269 2.050 1.445 55 55 44
1.269 2.050 1.446 56 56 47
1.270 2.050 1.446 55 55 44
1.272 2.049 1.447 55 55 44
1.270 2.050 1.447 55 55 44
1.266 2.054 1.445 57 54 44
1.264 2.055 1.445 59 56 45
1.266 2.054 1.446 59 56 45
1.269 2.055 1.446 56 56 46
1.270 2.054 1.446 55 55 45
1.272 2.054 1.446 52 52 43
1.269 2.054 1.447 56 56 46
1.274 2.052 1.442 59 57 46
1.274 2.052 1.442 59 57 46
1.275 2.052 1.442 56 56 47
1.274 2.052 1.444 59 57 46
1.280 2.052 1.441 63 60 50
1.279 2.049 1.442 60 56 48
1.280 2.049 1.442 63 60 50
1.276 2.050 1.442 58 55 47
1.278 2.050 1.442 60 56 48
1.280 2.052 1.442 62 59 49
1.273 2.053 1.444 59 57 46
1.274 2.054 1.444 58 54 46
1.275 2.054 1.444 58 54 46
1.276 2.053 1.442 58 54 44
1.278 2.053 1.442 60 56 46
1.276 2.053 1.444 58 54 44
1.278 2.053 1.444 60 56 46
1.279 2.053 1.442 60 56 46
1.273 2.049 1.447 55 55 44
1.280 2.049 1.445 63 60 50
1.273 2.054 1.445 52 52 43
1.274 2.054 1.445 59 57 46
1.280 2.053 1.446 56 53 44
1.280 2.053 1.447 56 53 44
1.279 2.054 1.447 57 53 47
1.264 2.048 1.451 62 59 49
1.272 2.048 1.448 56 54 45
1.268 2.054 1.451 57 55 44
1.266 2.054 1.452 56 54 43
1.267 2.054 1.452 57 55 44
1.268 2.054 1.450 56 56 46
1.264 2.054 1.452 55 54 42
1.275 2.053 1.452 54 53 41
1.278 2.053 1.448 57 53 47
1.278 2.053 1.450 57 53 47
1.274 2.052 1.454 55 52 41
1.275 2.053 1.453 54 53 41
1.256 2.054 1.457 56 55 44
1.249 2.056 1.458 57 56 45
1.264 2.054 1.457 55 54 42
1.281 2.052 1.441 63 60 50
1.284 2.050 1.441 57 54 46
1.282 2.049 1.442 59 56 48
1.281 2.050 1.442 56 54 43
1.281 2.052 1.442 61 59 48
1.284 2.050 1.442 57 54 46
1.284 2.052 1.444 54 53 41
1.286 2.049 1.441 57 53 45
1.287 2.048 1.441 58 55 47
1.286 2.049 1.441 58 55 47
1.285 2.050 1.441 57 54 46
1.287 2.050 1.441 59 55 45
1.287 2.048 1.442 60 57 49
1.286 2.052 1.442 59 55 45
1.286 2.050 1.444 56 53 44
1.285 2.052 1.444 54 53 41
1.287 2.050 1.442 60 57 49
1.286 2.052 1.442 59 55 45
1.282 2.053 1.444 54 53 41
1.285 2.053 1.442 56 53 44
1.280 2.048 1.445 58 55 47
1.280 2.048 1.446 58 55 47
1.281 2.053 1.445 54 53 41
1.280 2.054 1.445 55 54 42
1.280 2.053 1.446 55 54 42
1.288 2.048 1.441 60 57 49
1.292 2.049 1.441 57 55 44
1.290 2.050 1.441 56 54 43
1.292 2.050 1.441 56 53 45
1.291 2.049 1.442 57 55 44
1.288 2.050 1.442 56 54 43
1.292 2.052 1.444 55 52 44
1.292 2.049 1.441 58 56 45
1.293 2.049 1.441 57 55 44
1.292 2.049 1.441 56 53 45
1.296 2.048 1.441 59 57 46
1.294 2.048 1.441 58 56 45
1.294 2.049 1.442 55 53 42
1.296 2.049 1.442 55 53 42
1.294 2.049 1.444 55 53 42
1.292 2.050 1.444 54 52 43
1.293 2.050 1.444 54 52 41
1.290 2.052 1.446 57 53 45
1.291 2.050 1.445 55 52 44
1.290 2.050 1.447 57 53 45
1.292 2.050 1.445 54 52 43
1.293 2.050 1.445 54 52 41
1.292 2.052 1.445 54 52 43
1.287 2.050 1.450 54 52 43
1.287 2.050 1.451 53 50 39
1.286 2.049 1.453 53 50 39
1.286 2.049 1.456 57 53 43
1.288 2.050 1.448 57 53 45
1.297 2.048 1.441 59 57 46
1.297 2.049 1.441 56 54 43
1.298 2.049 1.441 54 51 43
1.299 2.048 1.441 59 56 48
1.298 2.049 1.441 59 56 48
1.302 2.048 1.441 56 53 45
1.302 2.049 1.441 54 51 43
1.303 2.048 1.441 56 53 45
1.303 2.048 1.446 58 54 46
1.302 2.048 1.447 58 54 46
1.303 2.048 1.447 58 54 46
1.308 2.048 1.442 50 48 39
1.298 2.048 1.452 55 53 42
1.284 2.049 1.457 56 53 44
1.261 1.844 1.179 54 50 39
1.257 1.846 1.178 67 64 55
1.258 1.846 1.177 67 64 55
1.260 1.846 1.177 63 60 53
1.257 1.846 1.179 68 68 58
1.258 1.846 1.179 65 61 50
1.260 1.846 1.179 60 57 48
1.261 1.845 1.178 58 55 46
1.261 1.844 1.183 56 53 44
1.257 1.846 1.181 70 68 56
1.257 1.846 1.180 65 61 50
1.257 1.846 1.184 68 64 55
1.260 1.846 1.183 57 54 45
1.258 1.846 1.184 66 62 53
1.257 1.846 1.184 68 64 55
1.261 1.845 1.181 56 53 44
1.256 1.844 1.185 73 71 59
1.256 1.840 1.188 74 72 60
1.256 1.844 1.190 71 69 57
1.256 1.844 1.191 73 69 60
1.261 1.844 1.186 59 56 47
1.257 1.846 1.188 73 69 60
1.258 1.846 1.186 61 58 49
1.260 1.846 1.188 61 58 49
1.257 1.846 1.186 69 66 57
1.261 1.845 1.185 57 54 45
1.261 1.845 1.188 60 57 48
1.261 1.844 1.190 57 54 45
1.257 1.846 1.191 67 64 55
1.258 1.846 1.190 58 58 48
1.260 1.846 1.190 58 58 48
1.257 1.846 1.190 72 68 60
1.261 1.845 1.190 57 55 43
1.256 1.845 1.194 77 74 63
1.256 1.845 1.197 74 70 62
1.261 1.843 1.195 54 51 42
1.258 1.846 1.194 58 58 48
1.260 1.846 1.194 61 58 49
1.257 1.846 1.194 58 58 48
1.261 1.845 1.195 62 59 50
1.261 1.844 1.197 62 60 48
1.261 1.844 1.200 58 54 43
1.258 1.846 1.197 66 65 56
1.260 1.846 1.197 59 57 45
1.257 1.846 1.197 66 65 54
1.261 1.845 1.198 59 57 45
1.261 1.838 1.207 53 51 39
1.252 1.839 1.209 74 70 62
1.252 1.838 1.214 79 76 64
1.261 1.839 1.209 56 52 40
1.261 1.838 1.214 63 58 47
1.256 1.845 1.201 70 69 58
1.261 1.844 1.203 56 54 42
1.257 1.846 1.202 71 71 58
1.260 1.846 1.201 60 56 47
1.257 1.846 1.201 65 64 53
1.260 1.846 1.201 66 63 52
1.256 1.846 1.203 71 71 58
1.260 1.846 1.203 62 57 49
1.261 1.845 1.202 60 56 47
1.261 1.844 1.207 54 54 42
1.256 1.846 1.206 69 65 57
1.260 1.846 1.204 62 57 49
1.256 1.846 1.204 67 63 55
1.257 1.846 1.204 68 64 56
1.256 1.846 1.208 64 61 50
1.260 1.846 1.208 65 61 53
1.258 1.847 1.208 65 61 53
1.261 1.846 1.204 59 55 46
1.254 1.840 1.214 73 73 60
1.261 1.844 1.212 60 56 48
1.256 1.846 1.209 73 72 61
1.260 1.846 1.209 61 58 47
1.258 1.846 1.212 61 60 49
1.257 1.846 1.212 65 64 53
1.260 1.846 1.212 59 58 47
1.261 1.845 1.209 60 56 48
1.261 1.846 1.212 61 57 49
1.261 1.844 1.215 59 56 45
1.256 1.846 1.213 64 63 54
1.257 1.846 1.213 65 64 53
1.256 1.846 1.215 72 69 58
1.260 1.846 1.214 64 60 52
1.258 1.847 1.214 67 66 57
1.261 1.845 1.215 63 59 51
1.255 1.844 1.219 75 71 63
1.254 1.840 1.220 73 72 61
1.255 1.844 1.221 74 71 60
1.261 1.844 1.218 60 56 48
1.260 1.846 1.218 67 63 55
1.257 1.846 1.220 74 71 60
1.260 1.846 1.219 67 63 55
1.258 1.847 1.219 66 63 52
1.261 1.846 1.219 65 61 53
1.261 1.843 1.224 61 56 48
1.256 1.846 1.220 74 71 60
1.257 1.847 1.221 69 68 59
1.260 1.846 1.221 67 63 55
1.258 1.847 1.221 67 63 55
1.256 1.846 1.224 75 72 61
1.261 1.845 1.222 62 57 47
1.255 1.844 1.226 79 74 64
1.261 1.844 1.226 61 58 47
1.258 1.847 1.225 71 68 57
1.260 1.846 1.226 62 61 50
1.256 1.846 1.226 71 68 57
1.261 1.845 1.226 62 59 48
1.261 1.844 1.230 62 59 48
1.257 1.847 1.228 65 64 53
1.256 1.846 1.230 72 67 59
1.260 1.846 1.228 62 61 50
1.258 1.847 1.228 65 64 53
1.258 1.847 1.232 65 64 55
1.261 1.845 1.231 61 56 46
1.255 1.841 1.233 75 72 61
1.255 1.844 1.233 76 73 62
1.255 1.845 1.234 74 69 59
1.256 1.846 1.238 75 70 60
1.261 1.843 1.234 57 53 45
1.257 1.847 1.232 73 68 58
1.256 1.846 1.233 73 68 58
1.260 1.846 1.232 62 59 48
1.260 1.846 1.236 64 61 50
1.258 1.847 1.236 64 61 50
1.261 1.846 1.233 59 56 45
1.261 1.844 1.237 56 52 44
1.257 1.847 1.237 70 65 54
1.260 1.846 1.237 60 59 48
1.257 1.847 1.239 63 60 49
1.258 1.847 1.238 65 62 51
1.260 1.846 1.239 65 62 51
1.261 1.846 1.238 60 59 48
1.256 1.846 1.242 72 69 58
1.256 1.846 1.244 70 67 56
1.261 1.843 1.242 60 59 48
1.256 1.846 1.240 70 67 56
1.257 1.847 1.244 67 62 51
1.260 1.846 1.244 63 58 47
1.258 1.847 1.244 67 62 51
1.261 1.845 1.242 57 56 45
1.256 1.846 1.244 68 63 52
1.257 1.847 1.248 67 62 52
1.260 1.846 1.246 63 60 49
1.258 1.847 1.246 67 62 51
1.261 1.846 1.244 57 52 44
1.261 1.847 1.246 63 60 49
1.256 1.846 1.249 69 64 53
1.255 1.845 1.254 67 62 52
1.256 1.846 1.256 66 63 52
1.260 1.840 1.250 61 58 47
1.261 1.843 1.250 55 52 41
1.257 1.847 1.250 68 65 54
1.257 1.847 1.251 68 65 54
1.258 1.847 1.250 60 57 46
1.260 1.847 1.250 59 55 47
1.260 1.846 1.251 59 55 47
1.261 1.846 1.249 61 57 49
1.261 1.841 1.256 56 52 44
1.257 1.847 1.255 64 61 50
1.260 1.846 1.255 58 57 46
1.260 1.846 1.256 55 54 45
1.261 1.846 1.252 57 53 45
1.258 1.849 1.254 58 57 46
1.256 1.849 1.255 69 64 54
1.256 1.846 1.258 69 64 54
1.256 1.847 1.261 58 55 44
1.261 1.843 1.258 53 48 38
1.257 1.847 1.257 60 57 46
1.260 1.847 1.257 60 57 46
1.260 1.846 1.258 59 58 47
1.261 1.846 1.256 54 53 46
1.261 1.846 1.260 55 54 43
1.261 1.843 1.261 54 53 46
1.260 1.846 1.262 61 58 50
1.261 1.846 1.263 54 50 42
1.261 1.847 1.262 61 58 50
1.256 1.849 1.257 60 55 47
1.258 1.849 1.257 60 57 46
1.257 1.849 1.262 57 56 47
1.258 1.849 1.261 60 56 48
1.256 1.849 1.262 57 56 47
1.256 1.847 1.264 59 59 52
1.256 1.847 1.268 60 59 52
1.261 1.844 1.264 56 52 44
1.257 1.847 1.266 58 57 48
1.260 1.847 1.266 56 55 46
1.260 1.846 1.267 56 55 46
1.261 1.846 1.268 55 51 45
1.261 1.843 1.268 55 50 40
1.260 1.847 1.268 61 59 48
1.257 1.847 1.270 62 59 51
1.261 1.847 1.269 54 50 42
1.261 1.846 1.272 52 48 40
1.256 1.849 1.266 58 57 48
1.258 1.849 1.266 60 56 48
1.256 1.849 1.269 57 56 47
1.258 1.849 1.269 61 59 48
1.256 1.849 1.270 57 56 47
1.254 1.845 1.274 67 67 58
1.256 1.847 1.274 66 63 54
1.261 1.843 1.274 52 47 39
1.260 1.847 1.273 59 56 48
1.261 1.847 1.274 59 56 48
1.261 1.846 1.275 59 56 48
1.261 1.843 1.279 52 48 40
1.260 1.847 1.276 57 54 46
1.261 1.847 1.276 55 52 44
1.261 1.846 1.280 55 52 44
1.257 1.849 1.273 59 56 48
1.256 1.849 1.274 66 63 54
1.258 1.849 1.273 59 56 48
1.256 1.849 1.276 64 62 50
1.257 1.849 1.276 58 55 47
1.258 1.849 1.276 58 55 47
1.256 1.849 1.279 59 59 48
1.260 1.849 1.280 51 51 40
1.248 1.903 1.280 85 82 64
1.246 1.904 1.280 85 82 64
1.245 1.906 1.278 93 89 72
1.246 1.906 1.278 88 83 68
1.246 1.905 1.279 82 76 61
1.248 1.905 1.280 82 76 61
1.246 1.907 1.279 69 65 53
1.246 1.907 1.280 68 65 53
1.243 1.910 1.278 97 93 75
1.244 1.911 1.276 85 82 64
1.244 1.910 1.276 83 80 64
1.245 1.910 1.276 83 80 64
1.246 1.910 1.278 69 65 53
1.244 1.911 1.278 72 70 56
1.239 1.917 1.273 90 88 72
