-2.790 -0.757 1.292 154 133 124
-2.790 -0.756 1.290 151 129 121
-2.791 -0.757 1.292 161 139 130
-2.790 -0.757 1.296 152 136 125
-2.794 -0.757 1.297 154 138 127
-2.792 -0.757 1.297 154 138 126
-2.793 -0.757 1.299 142 131 125
-2.792 -0.757 1.299 159 138 129
-2.794 -0.757 1.304 153 134 130
-2.792 -0.757 1.303 157 141 130
-2.791 -0.757 1.298 164 143 134
-2.791 -0.756 1.297 154 133 129
-2.790 -0.756 1.299 157 141 130
-2.791 -0.757 1.303 162 141 130
-2.790 -0.756 1.303 162 146 135
-2.792 -0.757 1.305 155 139 128
-2.794 -0.757 1.306 160 144 132
-2.794 -0.757 1.310 151 131 122
-2.792 -0.757 1.309 151 143 129
-2.791 -0.757 1.305 160 140 129
-2.790 -0.757 1.305 162 147 135
-2.791 -0.757 1.310 152 136 125
-2.790 -0.756 1.310 162 142 133
-2.794 -0.757 1.314 158 141 136
-2.792 -0.757 1.313 162 143 134
-2.794 -0.757 1.316 145 135 128
-2.792 -0.757 1.320 149 133 123
-2.792 -0.756 1.316 154 134 129
-2.791 -0.757 1.313 157 137 127
-2.791 -0.757 1.316 158 143 131
-2.790 -0.755 1.314 161 141 130
-2.790 -0.755 1.316 157 138 128
-2.791 -0.756 1.320 152 136 126
-2.794 -0.757 1.323 164 145 135
-2.794 -0.756 1.321 160 143 137
-2.792 -0.756 1.323 157 137 128
-2.794 -0.757 1.327 153 138 127
-2.792 -0.756 1.327 155 136 127
-2.790 -0.755 1.321 157 142 130
-2.791 -0.756 1.322 160 141 131
-2.790 -0.755 1.323 156 140 126
-2.791 -0.756 1.327 159 140 130
-2.790 -0.755 1.327 161 145 132
-2.794 -0.756 1.331 155 140 130
-2.792 -0.756 1.331 160 138 130
-2.792 -0.757 1.333 156 137 133
-2.794 -0.756 1.334 154 136 132
-2.791 -0.756 1.329 158 139 129
-2.790 -0.756 1.329 156 137 127
-2.791 -0.756 1.334 158 137 126
-2.790 -0.755 1.334 157 141 127
-2.791 -0.756 1.335 159 137 128
-2.792 -0.757 1.337 156 136 129
-2.794 -0.756 1.338 155 138 132
-2.792 -0.756 1.339 156 139 130
-2.794 -0.756 1.340 155 137 132
-2.792 -0.756 1.344 160 141 135
-2.790 -0.755 1.338 161 142 131
-2.791 -0.756 1.340 159 140 131
-2.790 -0.755 1.340 156 137 128
-2.791 -0.756 1.344 158 139 132
-2.792 -0.757 1.346 159 139 133
-2.794 -0.756 1.345 155 132 128
-2.794 -0.756 1.347 152 134 126
-2.794 -0.757 1.351 149 129 123
-2.792 -0.756 1.351 157 138 129
-2.791 -0.754 1.345 159 140 130
-2.791 -0.756 1.346 159 138 130
-2.791 -0.754 1.347 160 139 131
-2.791 -0.756 1.351 156 137 128
-2.790 -0.755 1.351 156 135 129
-2.792 -0.757 1.353 157 137 127
-2.794 -0.756 1.355 146 127 123
-2.794 -0.756 1.357 155 134 126
-2.792 -0.756 1.357 151 131 123
-2.791 -0.756 1.353 157 135 124
-2.791 -0.755 1.355 154 135 124
-2.791 -0.756 1.357 146 125 116
-2.791 -0.754 1.357 156 134 127
-2.794 -0.756 1.362 150 130 122
-2.792 -0.756 1.361 154 129 127
-2.794 -0.755 1.365 151 130 125
-2.792 -0.756 1.364 152 132 124
-2.792 -0.756 1.368 150 131 125
-2.791 -0.756 1.361 159 136 128
-2.790 -0.755 1.361 155 135 127
-2.791 -0.756 1.363 155 135 127
-2.791 -0.755 1.364 161 139 131
-2.791 -0.756 1.368 148 128 120
-2.794 -0.756 1.369 147 130 129
-2.792 -0.756 1.371 149 128 125
-2.794 -0.756 1.375 149 129 126
-2.792 -0.755 1.375 150 128 124
-2.791 -0.754 1.369 162 140 131
-2.791 -0.755 1.371 154 130 123
-2.791 -0.754 1.373 158 139 128
-2.791 -0.755 1.375 156 130 124
-2.794 -0.756 1.379 149 130 121
-2.792 -0.756 1.379 148 124 115
-2.792 -0.756 1.381 144 124 118
-2.794 -0.756 1.382 146 126 123
-2.791 -0.756 1.377 150 128 121
-2.791 -0.754 1.376 158 134 125
-2.791 -0.754 1.380 154 129 125
-2.791 -0.756 1.381 149 125 117
-2.791 -0.752 1.383 149 125 118
-2.792 -0.756 1.386 147 128 119
-2.792 -0.756 1.388 144 124 121
-2.791 -0.756 1.385 147 123 117
-2.791 -0.752 1.387 152 129 120
-2.791 -0.755 1.388 142 123 115
-2.791 -0.755 1.392 141 121 115
-2.791 -0.752 1.391 150 129 123
-2.792 -0.756 1.393 144 126 119
-2.792 -0.756 1.395 147 125 123
-2.792 -0.756 1.399 139 117 115
-2.791 -0.752 1.393 150 130 124
-2.791 -0.755 1.395 144 126 117
-2.791 -0.752 1.398 152 130 120
-2.791 -0.755 1.399 144 121 116
-2.792 -0.756 1.403 138 118 111
-2.792 -0.756 1.406 139 121 112
-2.791 -0.752 1.400 146 124 118
-2.791 -0.755 1.403 144 125 117
-2.791 -0.752 1.405 144 125 118
-2.791 -0.755 1.406 139 122 112
-2.792 -0.756 1.410 140 119 111
-2.793 -0.755 1.415 138 117 111
-2.791 -0.752 1.409 143 126 113
-2.791 -0.755 1.411 144 123 116
-2.791 -0.755 1.413 142 124 117
-2.791 -0.752 1.415 143 127 118
-2.792 -0.756 1.417 131 113 109
-2.793 -0.755 1.422 136 119 110
-2.791 -0.755 1.417 139 120 113
-2.791 -0.755 1.421 137 124 116
-2.791 -0.752 1.423 138 122 109
-2.791 -0.751 1.412 140 124 115
-2.791 -0.751 1.419 143 120 115
-2.792 -0.755 1.424 134 116 112
-2.792 -0.755 1.429 133 114 106
-2.792 -0.755 1.431 130 114 105
-2.791 -0.755 1.424 136 121 111
-2.791 -0.752 1.427 141 121 114
-2.791 -0.754 1.429 137 119 107
-2.791 -0.752 1.430 137 122 112
-2.793 -0.755 1.435 134 114 112
-2.793 -0.755 1.440 131 114 105
-2.791 -0.754 1.433 137 122 112
-2.791 -0.752 1.434 136 116 114
-2.791 -0.754 1.435 136 118 109
-2.791 -0.752 1.438 141 120 113
-2.791 -0.754 1.440 139 121 109
-2.792 -0.755 1.442 129 115 104
-2.792 -0.755 1.447 130 111 108
-2.791 -0.752 1.441 137 119 107
-2.791 -0.755 1.442 133 115 106
-2.791 -0.754 1.447 129 115 104
-2.793 -0.755 1.451 133 113 109
-2.793 -0.755 1.454 135 114 111
-2.791 -0.754 1.452 134 117 108
-2.791 -0.752 1.452 137 120 111
-2.791 -0.754 1.454 137 120 111
-2.791 -0.751 1.446 138 121 112
-2.791 -0.751 1.448 128 115 100
-2.792 -0.755 1.458 125 110 105
-2.793 -0.755 1.462 125 110 104
-2.791 -0.754 1.458 125 110 105
-2.791 -0.754 1.462 128 114 108
-2.793 -0.754 1.465 128 112 102
-2.793 -0.755 1.470 124 109 103
-2.791 -0.754 1.465 124 108 98
-2.791 -0.754 1.469 129 113 103
-2.791 -0.752 1.470 135 121 115
-2.791 -0.750 1.458 139 122 113
-2.791 -0.750 1.462 131 118 107
-2.791 -0.750 1.465 130 117 106
-2.791 -0.750 1.469 137 121 111
-2.793 -0.754 1.474 125 113 101
-2.793 -0.755 1.476 121 109 97
-2.791 -0.754 1.474 130 115 105
-2.791 -0.754 1.477 121 105 95
-2.791 -0.754 1.480 135 110 108
-2.793 -0.754 1.482 128 109 104
-2.793 -0.754 1.484 124 107 102
-2.791 -0.754 1.484 129 110 102
-2.791 -0.750 1.476 131 115 105
-2.791 -0.751 1.478 132 114 110
-2.791 -0.750 1.484 128 109 101
-2.791 -0.750 1.487 125 110 100
-2.793 -0.754 1.488 121 104 100
-2.793 -0.754 1.493 119 106 99
-2.791 -0.754 1.488 121 103 94
-2.788 -0.757 1.495 176 166 143
-2.791 -0.754 1.493 121 104 99
-2.793 -0.754 1.496 121 108 101
-2.793 -0.754 1.500 119 102 97
-2.791 -0.752 1.496 126 111 101
-2.791 -0.754 1.500 124 111 104
-2.787 -0.757 1.502 166 159 140
-2.791 -0.751 1.489 127 112 101
-2.791 -0.751 1.494 125 110 99
-2.791 -0.749 1.496 160 150 127
-2.791 -0.750 1.500 122 108 97
-2.791 -0.751 1.501 126 111 100
-2.793 -0.754 1.505 124 107 102
-2.792 -0.752 1.505 120 104 98
-2.793 -0.754 1.508 122 107 96
-2.792 -0.752 1.508 122 107 96
-2.793 -0.754 1.512 116 105 93
-2.791 -0.754 1.512 119 103 98
-2.793 -0.754 1.516 116 100 94
-2.793 -0.754 1.519 123 105 96
-2.791 -0.752 1.516 117 107 94
-2.791 -0.754 1.518 121 103 94
-2.791 -0.749 1.505 166 156 132
-2.791 -0.750 1.506 124 107 102
-2.791 -0.750 1.511 123 112 100
-2.791 -0.750 1.514 125 109 103
-2.791 -0.750 1.519 117 107 94
-2.793 -0.754 1.524 119 103 97
-2.792 -0.752 1.524 122 105 96
-2.793 -0.754 1.526 119 105 94
-2.791 -0.752 1.528 129 115 104
-2.793 -0.754 1.531 120 105 99
-2.792 -0.752 1.532 115 105 92
-2.793 -0.754 1.536 113 101 93
-2.791 -0.752 1.535 113 103 90
-2.791 -0.750 1.522 124 110 99
-2.791 -0.750 1.526 124 106 97
-2.791 -0.750 1.530 122 108 94
-2.791 -0.750 1.536 117 106 94
-2.793 -0.754 1.540 116 103 92
-2.792 -0.752 1.540 120 106 92
-2.793 -0.754 1.542 118 106 98
-2.792 -0.752 1.543 116 102 91
-2.793 -0.752 1.548 118 104 93
-2.792 -0.752 1.548 118 102 96
-2.793 -0.752 1.552 114 99 93
-2.792 -0.752 1.552 116 102 91
-2.791 -0.750 1.538 122 108 97
-2.791 -0.750 1.542 120 103 93
-2.791 -0.750 1.547 116 102 91
-2.791 -0.750 1.552 118 100 91
-2.793 -0.752 1.555 122 106 99
-2.793 -0.752 1.560 118 104 98
-2.791 -0.752 1.554 117 100 94
-2.791 -0.752 1.559 115 102 91
-2.793 -0.752 1.564 115 102 90
-2.792 -0.752 1.564 113 98 92
-2.793 -0.752 1.567 111 96 90
-2.792 -0.752 1.567 116 102 95
-2.791 -0.750 1.554 119 102 93
-2.791 -0.750 1.559 124 107 98
-2.791 -0.749 1.564 120 104 94
-2.791 -0.750 1.566 118 104 97
-2.793 -0.752 1.572 114 98 92
-2.792 -0.752 1.572 114 98 92
-2.793 -0.754 1.576 119 103 96
-2.792 -0.752 1.576 117 101 95
-2.793 -0.752 1.579 118 103 96
-2.792 -0.752 1.579 111 99 88
-2.791 -0.750 1.572 114 100 94
-2.791 -0.750 1.575 116 101 95
-2.791 -0.750 1.578 110 96 90
-2.793 -0.752 1.584 109 95 89
-2.792 -0.752 1.584 113 101 89
-2.793 -0.754 1.588 114 99 92
-2.793 -0.754 1.591 110 97 90
-2.791 -0.752 1.591 114 93 90
-2.793 -0.752 1.596 110 97 92
-2.792 -0.751 1.589 107 94 87
-2.791 -0.749 1.584 113 99 93
-2.791 -0.749 1.589 113 101 89
-2.791 -0.750 1.590 114 99 92
-2.792 -0.751 1.596 108 95 88
-2.791 -0.750 1.596 110 95 89
-2.791 -0.750 1.600 108 95 88
-2.793 -0.752 1.601 109 96 90
-2.792 -0.752 1.601 103 93 86
-2.793 -0.752 1.606 111 98 91
-2.793 -0.752 1.609 112 98 91
-2.792 -0.752 1.613 108 96 89
-2.793 -0.752 1.613 108 96 90
-2.792 -0.751 1.605 109 96 91
-2.791 -0.750 1.602 108 93 86
-2.792 -0.751 1.608 113 101 96
-2.791 -0.749 1.608 106 93 88
-2.791 -0.749 1.613 105 93 86
-2.791 -0.750 1.615 104 92 85
-2.792 -0.752 1.617 108 96 90
-2.793 -0.752 1.618 107 95 89
-2.793 -0.752 1.621 110 97 92
-2.793 -0.752 1.625 109 96 91
-2.792 -0.752 1.630 110 97 92
-2.793 -0.752 1.631 106 95 89
-2.792 -0.751 1.623 103 92 84
-2.791 -0.750 1.620 102 90 84
-2.792 -0.751 1.625 109 96 91
-2.791 -0.750 1.625 106 93 86
-2.791 -0.750 1.627 108 96 89
-2.793 -0.752 1.635 107 93 89
-2.793 -0.752 1.643 104 93 85
-2.793 -0.752 1.648 102 92 85
-2.792 -0.751 1.636 105 92 85
-2.792 -0.751 1.638 106 88 83
-2.793 -0.751 1.639 101 91 83
-2.792 -0.748 1.638 104 92 85
-2.791 -0.749 1.633 102 89 82
-2.792 -0.751 1.643 101 89 83
-2.792 -0.751 1.648 98 88 81
-2.791 -0.749 1.643 106 88 83
-2.793 -0.752 1.651 105 93 87
-2.793 -0.752 1.655 108 94 88
-2.792 -0.751 1.651 101 90 84
-2.792 -0.748 1.649 100 88 83
-2.792 -0.748 1.653 100 86 80
-2.792 -0.751 1.656 101 91 84
-2.792 -0.748 1.656 101 90 84
-2.793 -0.751 1.661 101 91 83
-2.792 -0.751 1.661 100 92 84
-2.792 -0.748 1.661 98 89 81
-2.793 -0.752 1.665 99 88 80
-2.793 -0.752 1.673 101 90 84
-2.792 -0.751 1.665 98 89 81
-2.792 -0.749 1.665 98 87 80
-2.793 -0.751 1.669 99 92 85
-2.792 -0.751 1.669 98 89 80
-2.792 -0.751 1.673 100 90 84
-2.793 -0.751 1.678 98 88 80
-2.792 -0.751 1.678 96 86 79
-2.792 -0.749 1.678 92 82 75
-2.793 -0.752 1.681 98 88 81
-2.793 -0.752 1.686 98 89 80
-2.792 -0.752 1.690 93 85 77
-2.793 -0.752 1.691 98 88 81
-2.792 -0.752 1.694 92 83 75
-2.793 -0.752 1.696 95 87 78
-2.791 -0.758 1.691 92 82 75
-2.792 -0.751 1.683 95 87 80
-2.792 -0.751 1.686 93 85 76
-2.791 -0.750 1.692 94 85 77
-2.793 -0.754 1.698 95 87 79
-4.447 1.891 1.543 29 23 20
2.635 1.528 1.198 254 225 209
2.636 1.531 1.197 255 238 230
2.635 1.531 1.200 255 252 233
2.637 1.532 1.200 255 246 230
2.636 1.528 1.202 255 236 225
2.636 1.528 1.206 255 241 217
2.635 1.531 1.202 255 247 222
2.637 1.531 1.203 255 238 230
2.636 1.531 1.207 255 247 231
2.639 1.532 1.204 241 217 203
2.637 1.532 1.207 254 225 214
2.635 1.528 1.209 255 239 223
2.635 1.528 1.210 255 234 218
2.635 1.528 1.214 255 255 237
2.635 1.531 1.209 255 244 228
2.636 1.531 1.209 252 222 212
2.635 1.531 1.212 255 245 231
2.639 1.532 1.209 246 217 212
2.635 1.531 1.214 255 250 226
2.636 1.531 1.215 255 228 212
2.639 1.531 1.215 244 214 203
2.637 1.532 1.213 255 241 228
2.641 1.530 1.203 240 211 200
2.641 1.532 1.212 252 228 214
2.635 1.528 1.218 255 250 226
2.636 1.528 1.220 255 237 221
2.636 1.531 1.220 255 236 220
2.638 1.532 1.218 252 214 206
2.637 1.532 1.219 255 236 220
2.636 1.531 1.222 255 239 223
2.639 1.531 1.221 255 219 211
2.637 1.532 1.221 252 228 214
2.639 1.532 1.224 243 217 211
2.636 1.528 1.225 255 242 226
2.636 1.528 1.227 255 231 209
2.636 1.528 1.231 255 239 223
2.636 1.531 1.226 255 244 228
2.635 1.531 1.227 255 247 223
2.637 1.532 1.225 255 236 225
2.637 1.532 1.227 255 238 225
2.635 1.531 1.231 255 236 214
2.639 1.532 1.230 251 227 214
2.637 1.532 1.232 255 233 209
2.641 1.532 1.227 246 222 209
2.636 1.528 1.233 255 239 223
2.635 1.528 1.237 255 239 215
2.635 1.528 1.239 254 225 220
2.635 1.531 1.234 255 228 212
2.639 1.532 1.233 243 219 206
2.637 1.532 1.234 255 230 206
2.636 1.531 1.238 255 232 208
2.639 1.532 1.237 255 227 211
2.639 1.532 1.239 243 219 200
2.635 1.529 1.242 235 209 204
2.636 1.531 1.240 251 227 214
2.637 1.532 1.240 255 235 216
2.639 1.532 1.244 237 213 195
2.636 1.531 1.244 251 227 208
2.636 1.531 1.248 255 249 227
2.637 1.532 1.248 255 235 216
2.639 1.532 1.246 253 235 219
2.635 1.531 1.250 255 235 211
2.637 1.531 1.250 248 229 208
2.636 1.531 1.255 254 235 214
2.637 1.532 1.254 248 229 213
2.635 1.531 1.256 243 224 203
2.636 1.531 1.257 250 226 213
2.635 1.531 1.260 251 232 211
2.637 1.532 1.260 245 226 210
2.636 1.531 1.263 255 232 213
2.637 1.532 1.263 253 229 205
2.635 1.531 1.267 255 232 216
2.637 1.532 1.267 242 223 197
2.636 1.531 1.269 255 240 218
2.637 1.532 1.269 244 226 210
2.636 1.528 1.279 247 223 205
2.635 1.531 1.273 253 229 210
2.635 1.531 1.275 255 239 218
2.637 1.532 1.273 247 223 210
2.636 1.531 1.280 255 239 217
2.637 1.532 1.276 255 231 212
2.636 1.528 1.282 255 239 221
2.636 1.528 1.286 255 234 221
2.635 1.528 1.287 255 236 223
2.635 1.531 1.282 255 236 220
2.637 1.532 1.282 247 236 212
2.635 1.531 1.286 252 228 210
2.637 1.532 1.286 244 220 206
2.636 1.528 1.292 250 231 210
2.636 1.528 1.296 255 236 217
2.636 1.531 1.290 255 236 215
2.636 1.534 1.288 252 233 212
2.635 1.531 1.292 255 244 217
2.635 1.531 1.296 255 241 222
2.636 1.534 1.292 255 233 209
2.637 1.532 1.296 246 222 203
2.635 1.528 1.298 255 236 215
2.635 1.528 1.300 249 231 215
2.635 1.531 1.298 255 238 217
2.637 1.532 1.299 249 230 209
2.635 1.531 1.303 255 244 217
2.636 1.534 1.303 249 238 209
2.635 1.528 1.304 255 244 222
2.635 1.528 1.308 255 238 217
2.635 1.531 1.305 255 233 214
2.637 1.532 1.305 249 225 211
2.635 1.531 1.309 255 246 225
2.635 1.529 1.310 251 233 211
2.633 1.531 1.311 246 235 211
2.636 1.534 1.309 249 230 214
2.636 1.534 1.311 254 243 219
2.633 1.529 1.314 255 238 214
2.633 1.531 1.316 255 251 227
2.636 1.534 1.316 246 222 203
2.635 1.529 1.317 255 243 217
2.633 1.529 1.319 255 241 214
2.633 1.531 1.319 255 241 214
2.636 1.534 1.319 255 238 217
2.633 1.531 1.322 255 246 219
2.633 1.529 1.322 255 241 222
2.636 1.534 1.322 251 240 211
2.633 1.531 1.326 255 238 211
2.635 1.529 1.327 255 248 230
2.636 1.534 1.326 230 219 195
2.633 1.529 1.329 255 248 230
2.633 1.531 1.328 255 243 216
2.636 1.534 1.328 238 230 206
2.633 1.529 1.333 255 251 230
2.635 1.531 1.333 255 240 214
2.633 1.531 1.335 255 246 224
2.636 1.534 1.333 238 224 208
2.636 1.534 1.335 251 227 214
2.637 1.524 1.343 255 246 222
2.633 1.529 1.337 255 251 227
2.632 1.530 1.339 255 238 214
2.633 1.531 1.339 255 255 235
2.636 1.534 1.339 249 229 214
2.639 1.534 1.339 74 73 63
2.633 1.531 1.341 255 245 216
2.632 1.530 1.343 255 254 230
2.636 1.534 1.343 246 227 206
2.641 1.535 1.331 77 73 62
2.643 1.529 1.335 246 235 211
2.641 1.520 1.339 255 243 225
2.643 1.529 1.339 225 214 190
2.643 1.529 1.344 230 211 190
2.637 1.524 1.346 255 255 232
2.636 1.525 1.346 255 243 219
2.635 1.526 1.350 255 254 227
2.632 1.530 1.346 255 255 224
2.633 1.531 1.346 255 255 230
2.636 1.534 1.346 255 237 219
2.637 1.532 1.346 85 84 71
2.633 1.531 1.349 255 248 216
2.632 1.530 1.350 255 255 229
2.633 1.531 1.351 255 248 224
2.637 1.532 1.350 255 237 211
2.636 1.525 1.352 255 243 219
2.635 1.526 1.356 255 255 237
2.633 1.528 1.358 249 224 200
2.633 1.529 1.352 255 255 232
2.636 1.531 1.353 96 95 82
2.632 1.530 1.356 255 243 219
2.633 1.531 1.356 255 243 219
2.636 1.534 1.352 254 235 208
2.633 1.531 1.358 255 243 216
2.632 1.530 1.359 255 243 221
2.636 1.534 1.359 249 229 203
2.637 1.532 1.357 238 219 192
2.643 1.529 1.346 235 216 200
2.641 1.530 1.357 238 219 197
2.641 1.532 1.361 219 195 171
2.643 1.536 1.323 77 73 58
2.477 2.654 1.234 121 110 99
2.483 2.655 1.244 126 111 97
2.483 2.655 1.246 125 114 103
2.488 2.656 1.220 208 204 181
2.484 2.660 1.226 64 60 55
2.488 2.656 1.227 211 205 181
2.480 2.656 1.238 120 109 98
2.484 2.661 1.233 64 60 54
2.482 2.659 1.239 124 116 107
2.488 2.657 1.234 203 195 169
2.483 2.660 1.240 124 113 102
2.488 2.656 1.240 204 194 171
2.484 2.660 1.243 63 59 53
2.483 2.661 1.243 122 111 100
2.483 2.657 1.245 126 111 97
2.483 2.659 1.244 134 119 104
2.483 2.660 1.244 127 116 105
2.483 2.657 1.248 124 113 102
2.483 2.659 1.248 131 116 105
2.483 2.660 1.248 130 115 104
2.483 2.661 1.245 118 109 93
2.483 2.655 1.250 126 119 109
2.483 2.655 1.254 117 109 100
2.483 2.655 1.257 122 111 103
2.483 2.655 1.268 127 117 101
2.483 2.655 1.274 117 109 93
2.483 2.655 1.279 122 111 100
2.483 2.657 1.251 118 110 98
2.483 2.659 1.251 124 116 103
2.483 2.660 1.251 124 113 102
2.483 2.661 1.249 117 107 99
2.483 2.659 1.254 127 115 104
2.483 2.657 1.255 126 115 104
2.483 2.660 1.255 118 104 93
2.483 2.661 1.252 117 101 95
2.483 2.661 1.256 118 104 93
2.483 2.657 1.257 119 108 100
2.483 2.659 1.257 122 111 104
2.483 2.660 1.257 121 113 101
2.483 2.661 1.258 121 110 99
2.483 2.656 1.261 123 109 98
2.483 2.657 1.262 127 112 101
2.483 2.659 1.262 129 114 100
2.483 2.660 1.262 113 106 93
2.483 2.656 1.263 125 113 102
2.483 2.659 1.263 120 109 98
2.483 2.661 1.262 116 105 94
2.483 2.657 1.264 116 105 94
2.483 2.660 1.264 119 108 97
2.483 2.657 1.268 118 107 96
2.483 2.659 1.268 127 113 102
2.483 2.660 1.268 119 108 97
2.483 2.661 1.264 114 103 92
2.483 2.656 1.270 122 114 101
2.483 2.657 1.270 113 106 93
2.483 2.659 1.270 123 111 100
2.483 2.660 1.270 117 106 95
2.483 2.661 1.268 112 101 90
2.483 2.661 1.272 121 107 96
2.483 2.657 1.274 119 109 93
2.483 2.659 1.274 121 110 99
2.483 2.660 1.274 118 106 96
2.483 2.661 1.274 111 103 91
2.483 2.657 1.278 117 110 97
2.483 2.659 1.278 121 110 99
2.483 2.660 1.278 129 114 103
2.484 2.661 1.279 120 105 94
2.483 2.655 1.281 125 115 99
2.483 2.655 1.286 120 112 99
2.483 2.657 1.281 118 110 97
2.483 2.659 1.281 118 110 101
2.483 2.660 1.281 120 109 102
2.483 2.661 1.281 113 102 91
2.483 2.662 1.281 112 101 90
2.483 2.657 1.285 120 109 98
2.483 2.659 1.285 126 114 107
2.483 2.660 1.285 122 111 100
2.483 2.659 1.287 122 111 104
2.483 2.661 1.285 119 104 93
2.483 2.662 1.286 119 104 93
2.483 2.661 1.287 119 108 97
2.483 2.657 1.288 128 116 109
2.483 2.660 1.288 123 108 93
2.483 2.659 1.292 123 111 100
2.486 2.656 1.290 125 114 103
2.484 2.656 1.292 121 110 99
2.483 2.662 1.288 118 107 96
2.483 2.661 1.292 120 108 97
2.483 2.661 1.292 123 112 101
2.483 2.659 1.294 120 110 94
2.483 2.660 1.294 120 110 94
2.486 2.656 1.292 122 111 100
2.484 2.656 1.296 117 108 92
2.483 2.662 1.292 113 102 94
2.483 2.661 1.294 124 109 94
2.483 2.660 1.298 124 113 101
2.483 2.659 1.298 122 111 100
2.484 2.656 1.298 120 108 101
2.483 2.662 1.297 115 104 93
2.483 2.661 1.298 119 108 97
2.483 2.659 1.302 126 114 103
2.483 2.660 1.302 126 111 100
2.484 2.656 1.303 126 114 107
2.483 2.662 1.303 121 110 103
2.484 2.662 1.300 115 104 97
2.484 2.661 1.303 126 111 100
2.483 2.659 1.305 128 117 106
2.483 2.660 1.305 130 115 104
2.484 2.656 1.305 124 113 105
2.484 2.661 1.305 130 115 104
2.484 2.662 1.306 116 105 94
2.483 2.659 1.309 125 117 104
2.483 2.660 1.309 125 117 104
2.483 2.660 1.311 126 118 105
2.486 2.657 1.310 123 115 102
2.483 2.662 1.310 115 103 92
2.484 2.661 1.309 127 116 105
2.483 2.659 1.316 124 116 103
2.486 2.657 1.314 125 114 103
2.484 2.660 1.313 125 114 103
2.483 2.661 1.313 124 114 98
2.483 2.661 1.316 124 113 102
2.484 2.662 1.314 113 102 91
2.484 2.661 1.316 110 102 89
2.483 2.660 1.319 121 113 100
2.484 2.657 1.316 125 118 105
2.484 2.660 1.320 126 115 104
2.484 2.662 1.316 108 101 88
2.484 2.661 1.320 119 108 97
2.486 2.657 1.321 122 111 100
2.484 2.660 1.322 127 115 104
2.483 2.661 1.322 129 117 110
2.483 2.661 1.322 122 111 99
2.484 2.662 1.321 116 105 93
2.486 2.657 1.325 130 115 104
2.486 2.657 1.327 127 112 101
2.484 2.660 1.327 129 114 103
2.483 2.662 1.327 119 107 100
2.486 2.663 1.325 122 111 99
2.484 2.661 1.327 129 114 103
2.484 2.660 1.329 128 116 105
2.486 2.657 1.331 124 112 101
2.483 2.661 1.329 128 116 105
2.483 2.662 1.331 121 109 102
2.484 2.661 1.329 124 113 102
2.484 2.660 1.334 124 113 102
2.483 2.661 1.333 127 115 104
2.483 2.662 1.334 123 108 97
2.484 2.661 1.334 123 108 97
2.483 2.660 1.339 122 114 97
2.488 2.657 1.337 128 117 105
2.484 2.660 1.337 125 117 108
2.483 2.661 1.337 120 108 97
2.483 2.662 1.338 116 109 95
2.484 2.661 1.338 123 112 101
2.488 2.657 1.340 128 117 109
2.484 2.660 1.340 120 112 99
2.488 2.657 1.344 127 119 106
2.483 2.661 1.344 124 113 101
2.484 2.661 1.340 118 111 97
2.484 2.662 1.341 120 113 99
2.484 2.661 1.344 122 111 100
2.483 2.660 1.346 128 113 98
2.486 2.659 1.346 126 114 103
2.488 2.657 1.347 135 120 108
2.484 2.662 1.346 122 111 100
2.484 2.661 1.347 121 109 98
2.486 2.659 1.349 138 122 111
2.488 2.657 1.351 130 118 110
2.484 2.660 1.351 125 113 102
2.486 2.659 1.351 131 119 108
2.484 2.662 1.349 117 106 95
2.484 2.661 1.351 123 112 100
2.484 2.662 1.351 121 110 99
2.484 2.660 1.355 133 121 110
2.486 2.659 1.356 129 117 106
2.484 2.661 1.355 129 119 102
2.484 2.662 1.356 126 110 99
2.484 2.660 1.358 126 114 107
2.487 2.660 1.359 127 120 106
2.484 2.661 1.358 122 110 103
2.484 2.662 1.358 120 109 97
2.488 2.659 1.356 132 115 109
2.484 2.660 1.362 128 120 111
2.486 2.659 1.363 132 120 109
2.483 2.662 1.363 124 113 105
2.484 2.661 1.362 120 113 103
2.484 2.660 1.365 126 115 103
2.487 2.660 1.368 130 118 107
2.484 2.661 1.365 124 117 107
2.487 2.661 1.364 60 58 51
2.484 2.662 1.367 115 107 98
2.489 2.657 1.361 125 113 106
2.484 2.660 1.369 130 119 111
2.487 2.660 1.371 132 121 109
2.484 2.661 1.369 127 115 104
2.484 2.662 1.369 123 111 100
2.484 2.660 1.374 125 117 104
2.487 2.660 1.375 131 119 108
2.484 2.661 1.373 119 112 102
2.484 2.662 1.374 119 112 102
2.484 2.660 1.376 127 116 104
2.487 2.660 1.379 137 127 110
2.484 2.661 1.376 127 116 104
2.484 2.662 1.376 120 112 102
2.484 2.660 1.381 124 116 106
2.484 2.660 1.383 126 118 104
2.487 2.660 1.382 124 116 106
2.484 2.661 1.381 126 114 102
2.484 2.662 1.381 126 114 103
2.484 2.661 1.383 120 108 97
2.484 2.660 1.387 130 112 106
2.488 2.660 1.387 126 118 108
2.484 2.662 1.385 122 110 102
2.484 2.661 1.387 128 110 104
2.488 2.659 1.391 124 112 105
2.484 2.662 1.388 120 108 97
2.486 2.661 1.392 122 114 100
2.487 2.665 1.391 108 100 91
2.484 2.660 1.395 122 110 98
2.488 2.660 1.395 124 116 106
2.487 2.661 1.393 122 114 104
2.486 2.663 1.393 123 112 104
2.484 2.661 1.394 120 112 98
2.486 2.663 1.395 121 110 98
2.486 2.661 1.399 127 111 100
2.484 2.662 1.399 131 115 100
2.486 2.665 1.393 121 110 102
2.486 2.665 1.398 121 110 98
2.487 2.661 1.400 123 112 100
2.486 2.661 1.403 123 111 100
2.487 2.661 1.404 125 113 106
2.484 2.662 1.403 123 111 100
2.486 2.661 1.406 125 117 104
2.487 2.661 1.407 125 117 104
2.486 2.663 1.406 119 107 96
2.488 2.660 1.400 128 116 104
2.488 2.660 1.405 127 116 104
2.488 2.660 1.407 123 111 100
2.486 2.665 1.401 115 100 85
2.486 2.665 1.405 117 109 100
2.486 2.665 1.407 109 98 90
2.484 2.661 1.410 121 109 102
2.487 2.661 1.411 121 109 98
2.486 2.663 1.411 115 107 94
2.486 2.661 1.415 121 109 98
2.487 2.661 1.416 119 107 96
2.486 2.663 1.416 117 105 97
2.490 2.660 1.413 131 119 108
2.486 2.665 1.412 115 103 96
2.484 2.661 1.417 126 111 99
2.488 2.661 1.419 126 111 99
2.486 2.663 1.418 120 105 93
2.486 2.661 1.422 120 108 97
2.488 2.661 1.423 128 116 105
2.486 2.663 1.423 116 105 93
2.487 2.665 1.417 114 107 93
2.486 2.665 1.419 114 103 91
2.486 2.665 1.423 120 108 101
2.486 2.661 1.425 126 116 99
2.486 2.663 1.425 114 102 91
2.488 2.661 1.428 132 120 109
2.486 2.661 1.429 120 108 101
2.486 2.663 1.429 120 108 101
2.488 2.661 1.431 124 112 101
2.487 2.665 1.428 114 102 91
2.486 2.665 1.431 119 104 93
2.486 2.661 1.434 125 114 102
2.486 2.663 1.434 119 110 93
2.488 2.661 1.435 126 114 102
2.486 2.661 1.438 121 109 98
2.486 2.663 1.438 117 105 94
2.486 2.665 1.435 115 104 93
2.486 2.665 1.439 113 102 90
2.486 2.661 1.441 123 108 93
2.486 2.663 1.441 126 114 103
2.486 2.661 1.446 120 110 93
2.486 2.663 1.446 120 109 97
2.488 2.661 1.441 118 110 97
2.488 2.661 1.446 125 110 95
2.486 2.665 1.442 111 99 92
2.486 2.665 1.446 118 107 95
2.486 2.661 1.450 119 107 100
2.487 2.662 1.450 113 105 92
2.486 2.661 1.453 124 108 101
2.486 2.663 1.452 117 105 94
2.488 2.661 1.448 120 110 93
2.488 2.661 1.453 125 117 107
2.486 2.665 1.451 103 92 85
2.486 2.665 1.454 110 103 93
2.486 2.663 1.458 116 108 95
2.487 2.661 1.459 124 115 102
2.487 2.661 1.462 118 109 96
2.486 2.663 1.460 112 103 93
2.489 2.661 1.459 127 115 107
2.489 2.661 1.462 123 111 100
2.486 2.665 1.458 108 97 90
2.486 2.665 1.462 112 103 93
2.486 2.661 1.465 116 108 98
2.486 2.663 1.464 109 101 92
2.487 2.661 1.470 118 109 97
2.487 2.662 1.470 117 106 95
2.489 2.661 1.466 119 111 98
2.490 2.661 1.471 123 111 100
2.486 2.665 1.465 109 101 92
2.486 2.665 1.470 109 100 85
2.486 2.661 1.474 115 107 97
2.486 2.663 1.472 114 102 91
2.487 2.661 1.477 115 103 92
2.487 2.662 1.477 115 103 92
2.489 2.661 1.474 121 112 99
2.490 2.661 1.480 122 110 101
2.487 2.665 1.475 115 105 90
2.486 2.665 1.477 115 105 94
2.487 2.662 1.482 117 109 97
2.487 2.662 1.482 118 108 92
2.487 2.662 1.486 116 105 93
2.487 2.662 1.487 115 108 92
2.486 2.665 1.482 114 104 93
2.486 2.665 1.486 109 98 88
2.487 2.662 1.489 111 101 93
2.487 2.662 1.490 119 108 96
2.487 2.662 1.494 114 104 92
2.487 2.662 1.494 121 112 97
2.486 2.665 1.489 110 101 94
2.486 2.665 1.494 113 103 92
2.487 2.662 1.498 113 105 91
2.488 2.661 1.500 124 115 101
2.487 2.662 1.501 116 105 94
2.487 2.662 1.502 118 108 96
2.488 2.666 1.496 113 103 92
2.487 2.665 1.499 114 104 93
2.488 2.666 1.500 105 97 85
2.487 2.665 1.502 110 101 88
2.487 2.662 1.506 114 105 92
2.487 2.662 1.510 114 103 93
2.489 2.662 1.510 117 106 94
2.486 2.665 1.506 113 101 91
2.488 2.666 1.505 110 101 88
2.487 2.666 1.507 113 101 91
2.486 2.665 1.511 114 103 93
2.487 2.666 1.512 110 101 90
2.488 2.661 1.512 120 109 99
2.487 2.662 1.514 110 103 91
2.488 2.663 1.519 118 107 95
2.488 2.661 1.518 114 105 94
2.487 2.665 1.514 111 102 93
2.488 2.666 1.517 105 96 85
2.487 2.665 1.518 118 107 95
2.487 2.666 1.519 106 99 89
2.488 2.663 1.524 114 106 92
2.488 2.663 1.528 118 109 98
2.489 2.662 1.523 121 110 99
2.490 2.661 1.528 119 109 92
2.487 2.665 1.523 114 104 90
2.487 2.666 1.524 116 105 95
2.487 2.665 1.528 119 107 95
2.487 2.666 1.528 109 101 91
2.488 2.663 1.531 121 111 100
2.490 2.662 1.532 120 110 99
2.489 2.662 1.536 121 111 100
2.487 2.665 1.531 116 106 96
2.487 2.666 1.531 110 100 88
2.487 2.665 1.536 115 108 96
2.488 2.663 1.536 117 110 96
2.487 2.663 1.540 118 111 99
2.492 2.662 1.542 118 108 95
2.488 2.666 1.536 106 100 87
2.487 2.665 1.540 117 107 96
2.488 2.666 1.541 114 103 92
2.486 2.665 1.543 119 110 99
2.488 2.663 1.546 120 111 98
2.488 2.663 1.549 116 108 94
2.493 2.662 1.548 118 111 99
2.488 2.666 1.544 112 103 92
2.487 2.665 1.548 118 108 92
2.487 2.666 1.548 114 102 90
2.487 2.666 1.552 110 103 92
2.488 2.663 1.559 121 112 98
2.488 2.663 1.554 118 112 100
2.487 2.665 1.553 115 107 94
2.486 2.665 1.556 115 105 92
2.488 2.666 1.558 115 105 92
2.488 2.663 1.563 116 107 96
2.488 2.663 1.567 122 113 99
2.487 2.665 1.561 119 111 99
2.488 2.666 1.563 117 108 95
2.487 2.665 1.566 116 107 96
2.488 2.666 1.566 116 107 96
2.488 2.663 1.572 119 110 96
2.487 2.665 1.570 118 107 100
2.487 2.666 1.571 109 98 92
2.487 2.665 1.573 123 112 102
2.488 2.666 1.576 123 112 102
2.489 2.663 1.578 124 109 96
2.488 2.663 1.581 115 105 98
2.487 2.665 1.579 122 110 100
2.488 2.666 1.579 120 110 103
2.487 2.666 1.583 121 109 102
2.488 2.665 1.584 121 109 102
2.488 2.667 1.582 110 101 90
2.490 2.663 1.589 119 111 100
2.488 2.667 1.584 108 100 88
2.487 2.665 1.588 122 111 101
2.487 2.666 1.588 121 112 101
2.488 2.667 1.590 117 109 97
2.490 2.663 1.593 122 111 101
2.490 2.663 1.597 131 120 107
2.488 2.665 1.593 120 109 96
2.488 2.666 1.593 125 109 101
2.488 2.666 1.596 119 108 97
2.488 2.665 1.597 123 112 99
2.488 2.667 1.597 116 104 94
2.489 2.667 1.596 116 104 94
2.490 2.663 1.602 123 112 99
2.490 2.663 1.607 125 114 100
2.488 2.666 1.601 120 109 99
2.488 2.666 1.606 126 111 101
2.488 2.667 1.607 124 109 100
2.488 2.665 1.602 122 114 102
2.488 2.667 1.602 115 104 94
2.488 2.665 1.607 122 111 103
2.490 2.663 1.615 128 117 106
2.494 2.663 1.613 122 111 103
2.487 2.666 1.609 123 112 101
2.488 2.667 1.611 123 107 101
2.488 2.666 1.614 120 104 98
2.488 2.665 1.612 124 114 103
2.488 2.665 1.615 130 115 106
2.490 2.663 1.620 130 115 106
2.488 2.666 1.620 127 112 103
2.488 2.667 1.620 118 107 97
2.488 2.667 1.617 120 104 98
2.488 2.665 1.619 129 113 107
2.488 2.666 1.625 121 110 103
2.488 2.667 1.629 121 110 96
2.488 2.666 1.630 133 116 107
2.488 2.665 1.625 129 118 107
2.488 2.667 1.625 119 112 99
2.493 2.665 1.626 126 110 104
2.488 2.665 1.630 136 121 115
2.488 2.666 1.632 131 116 107
2.488 2.667 1.637 128 113 104
2.488 2.666 1.638 128 113 104
2.488 2.667 1.633 125 109 99
2.488 2.665 1.635 128 113 107
2.489 2.665 1.639 128 113 104
2.488 2.666 1.643 131 116 107
2.488 2.666 1.648 126 111 102
2.488 2.667 1.643 126 110 100
2.489 2.665 1.644 134 119 113
2.488 2.667 1.648 126 111 102
2.488 2.666 1.653 133 119 112
2.489 2.665 1.649 126 111 102
2.488 2.667 1.653 128 114 104
2.488 2.666 1.657 127 112 102
2.488 2.666 1.661 138 122 112
2.488 2.667 1.661 130 113 107
2.490 2.666 1.656 127 112 103
2.488 2.667 1.656 127 112 102
2.490 2.666 1.661 133 120 106
2.489 2.668 1.661 123 109 99
2.489 2.669 1.663 127 113 103
2.488 2.666 1.666 129 114 104
2.488 2.666 1.671 133 118 108
2.488 2.667 1.671 133 118 108
2.489 2.666 1.665 138 122 109
2.488 2.667 1.667 129 114 104
2.489 2.665 1.668 140 120 112
2.489 2.668 1.669 127 110 104
2.490 2.666 1.674 130 118 103
2.488 2.667 1.675 130 116 105
2.489 2.669 1.673 127 110 105
2.488 2.666 1.677 129 115 101
2.489 2.668 1.679 125 108 103
2.488 2.666 1.680 128 115 104
2.488 2.667 1.680 128 115 104
2.493 2.666 1.683 132 117 107
2.489 2.669 1.683 129 110 101
2.488 2.667 1.685 131 113 103
2.488 2.666 1.686 131 113 101
2.492 2.666 1.686 135 121 110
2.488 2.668 1.686 132 114 105
2.488 2.666 1.691 130 112 102
2.492 2.666 1.691 134 116 106
2.488 2.667 1.691 130 112 102
2.489 2.669 1.691 131 110 105
2.492 2.666 1.696 138 121 111
2.488 2.667 1.696 129 109 101
2.489 2.666 1.697 126 108 99
2.489 2.669 1.697 127 110 103
2.488 2.667 1.701 135 116 110
2.489 2.666 1.702 135 116 110
2.494 2.666 1.703 132 120 108
2.489 2.669 1.702 126 110 103
2.488 2.667 1.706 126 110 100
2.489 2.666 1.707 134 118 107
2.489 2.669 1.707 131 112 106
2.488 2.667 1.709 129 112 99
2.488 2.666 1.710 129 112 99
2.495 2.666 1.712 127 115 103
2.488 2.668 1.710 124 105 97
2.488 2.668 1.714 124 109 100
2.488 2.667 1.714 129 112 102
2.489 2.666 1.716 129 112 102
2.488 2.667 1.720 123 106 99
2.488 2.668 1.725 117 102 91
2.489 2.666 1.721 127 109 102
2.488 2.668 1.721 118 106 99
2.488 2.667 1.725 127 111 103
2.489 2.666 1.726 127 111 103
2.488 2.668 1.730 123 110 101
2.489 2.666 1.732 122 109 97
2.489 2.671 1.728 123 110 101
2.488 2.668 1.731 120 107 95
2.488 2.667 1.734 118 105 96
2.489 2.671 1.733 126 114 102
2.489 2.669 1.736 122 109 100
2.489 2.666 1.738 118 105 96
2.488 2.667 1.739 121 109 97
2.489 2.669 1.739 120 108 95
2.490 2.671 1.739 128 113 102
2.489 2.669 1.743 120 108 96
2.488 2.668 1.750 109 98 88
2.489 2.667 1.745 122 108 99
2.492 2.666 1.744 121 109 97
2.489 2.666 1.748 117 102 94
2.489 2.669 1.744 117 103 94
2.489 2.669 1.748 118 105 98
2.488 2.667 1.750 118 105 97
2.488 2.671 1.751 118 107 97
2.493 2.666 1.755 118 105 97
2.489 2.669 1.755 112 101 88
2.488 2.668 1.756 114 104 91
2.492 2.666 1.760 116 105 95
2.489 2.669 1.757 115 109 94
2.489 2.667 1.762 113 103 92
2.490 2.666 1.763 113 103 92
2.489 2.669 1.761 108 100 89
2.488 2.671 1.761 106 100 88
2.488 2.667 1.764 112 100 90
2.489 2.669 1.766 109 97 87
2.488 2.671 1.767 104 96 86
2.488 2.668 1.770 114 98 87
2.489 2.667 1.772 114 101 89
2.493 2.666 1.770 112 100 90
2.488 2.671 1.770 117 106 95
2.489 2.667 1.775 118 107 94
2.492 2.666 1.774 119 107 94
2.489 2.669 1.775 117 102 90
2.489 2.669 1.778 109 95 87
2.488 2.667 1.780 110 99 89
2.489 2.669 1.780 108 98 87
2.488 2.671 1.781 104 95 86
2.489 2.667 1.786 114 103 93
2.494 2.667 1.786 118 107 94
2.489 2.669 1.786 104 93 84
2.488 2.671 1.786 107 97 88
2.489 2.667 1.792 115 104 93
2.494 2.666 1.788 115 102 93
2.489 2.669 1.792 107 96 87
2.494 2.666 1.793 114 103 93
2.488 2.671 1.792 105 94 85
2.489 2.669 1.796 109 98 90
2.490 2.667 1.798 115 104 94
2.488 2.671 1.797 108 98 89
2.490 2.667 1.804 116 104 94
2.495 2.666 1.803 115 104 93
2.489 2.669 1.802 113 104 92
2.489 2.669 1.803 106 96 87
2.489 2.669 1.806 112 101 92
2.488 2.671 1.808 105 96 85
2.492 2.673 1.803 108 98 89
2.492 2.673 1.808 99 92 82
2.489 2.667 1.809 112 101 92
2.489 2.669 1.811 112 100 90
2.490 2.667 1.815 112 100 90
2.488 2.671 1.813 107 95 85
2.490 2.667 1.820 113 100 91
2.489 2.669 1.819 110 95 87
2.488 2.671 1.819 108 96 87
2.490 2.672 1.822 108 97 89
2.489 2.669 1.823 115 102 90
2.492 2.673 1.813 109 98 89
2.489 2.673 1.815 107 95 85
2.490 2.667 1.825 115 102 90
2.489 2.669 1.825 111 99 89
2.490 2.672 1.826 111 99 89
2.489 2.669 1.828 111 99 90
2.488 2.671 1.828 110 97 88
2.490 2.668 1.832 115 102 88
2.490 2.672 1.832 110 97 88
2.489 2.667 1.834 118 107 91
2.489 2.669 1.834 118 107 91
2.488 2.671 1.834 114 101 92
2.490 2.672 1.837 104 93 83
2.488 2.671 1.839 106 95 87
2.489 2.669 1.840 113 100 91
2.492 2.667 1.845 113 100 91
2.489 2.668 1.846 113 98 90
2.489 2.669 1.846 108 96 88
2.488 2.672 1.846 116 107 96
2.492 2.667 1.850 118 108 97
2.489 2.668 1.851 113 100 91
2.488 2.671 1.851 115 100 92
2.488 2.672 1.851 107 94 86
2.492 2.667 1.855 113 100 91
2.488 2.671 1.856 112 100 91
2.489 2.673 1.840 106 95 87
2.498 2.667 1.810 117 105 95
2.498 2.667 1.816 116 104 94
2.498 2.667 1.821 116 104 94
2.498 2.667 1.832 113 103 90
2.502 2.668 1.834 119 107 94
2.498 2.668 1.838 118 107 91
2.489 2.669 1.857 113 99 88
2.488 2.672 1.857 111 98 89
2.489 2.669 1.862 119 105 93
2.488 2.671 1.862 112 97 89
2.488 2.672 1.863 108 98 88
2.489 2.668 1.868 112 99 90
2.489 2.669 1.868 112 98 87
2.488 2.672 1.868 113 103 92
2.494 2.668 1.864 113 99 88
2.494 2.668 1.869 117 103 91
2.492 2.673 1.862 108 101 90
2.494 2.673 1.861 107 94 86
2.492 2.673 1.867 108 98 88
2.490 2.673 1.870 113 103 92
2.488 2.671 1.873 114 102 90
2.488 2.672 1.873 109 99 89
2.489 2.668 1.875 114 102 90
2.493 2.668 1.873 112 99 90
2.489 2.669 1.879 116 101 93
2.489 2.668 1.880 116 101 93
2.488 2.672 1.880 111 99 87
2.494 2.668 1.882 116 104 92
2.489 2.669 1.885 112 100 85
2.490 2.669 1.886 115 103 91
2.488 2.672 1.885 112 100 89
2.494 2.668 1.885 117 105 95
2.489 2.673 1.875 110 100 90
2.492 2.673 1.882 111 99 87
2.489 2.673 1.887 112 100 89
2.488 2.672 1.889 109 96 87
2.489 2.668 1.891 115 104 89
2.489 2.669 1.891 115 104 89
2.488 2.671 1.894 114 104 91
2.488 2.672 1.895 107 95 86
2.494 2.668 1.893 116 106 90
2.490 2.669 1.898 114 104 91
2.495 2.668 1.899 113 102 87
2.489 2.669 1.901 112 102 91
2.488 2.672 1.900 104 93 81
2.490 2.669 1.903 113 104 93
2.489 2.673 1.892 109 96 85
2.489 2.673 1.898 107 95 86
2.488 2.673 1.901 108 96 86
2.489 2.669 1.907 108 102 88
2.488 2.672 1.906 107 97 84
2.490 2.669 1.909 108 102 88
2.494 2.668 1.910 104 97 84
2.489 2.669 1.912 109 98 83
2.488 2.672 1.912 107 98 85
2.490 2.669 1.915 109 98 83
2.489 2.669 1.918 109 100 87
2.490 2.669 1.919 112 103 87
2.488 2.672 1.918 108 96 88
2.495 2.669 1.918 111 101 88
2.489 2.673 1.909 108 95 84
2.489 2.673 1.913 107 96 81
2.489 2.673 1.919 110 100 93
2.494 2.675 1.917 114 102 90
2.496 2.674 1.859 116 107 96
2.505 2.669 1.888 116 103 91
2.510 2.669 1.903 118 106 94
2.496 2.668 1.909 113 103 90
2.512 2.671 1.912 117 104 92
2.498 2.675 1.918 109 97 87
2.500 2.675 1.917 114 102 92
2.504 2.677 1.917 104 92 85
2.495 2.669 1.923 109 98 81
2.489 2.669 1.924 108 96 84
2.492 2.669 1.928 108 96 84
2.488 2.672 1.929 106 97 84
2.489 2.669 1.930 106 97 84
2.495 2.668 1.929 110 98 86
2.492 2.669 1.934 105 96 83
2.489 2.669 1.935 108 98 82
2.488 2.672 1.935 108 98 82
2.494 2.675 1.923 107 97 87
2.489 2.673 1.924 103 91 80
2.489 2.673 1.925 104 95 84
2.492 2.675 1.925 110 100 93
2.488 2.673 1.930 106 97 84
2.492 2.674 1.930 104 95 84
2.492 2.674 1.935 99 92 81
2.490 2.669 1.938 108 98 83
2.489 2.671 1.944 109 99 83
2.495 2.669 1.941 109 99 86
2.492 2.669 1.945 104 95 80
2.488 2.672 1.947 106 93 82
2.495 2.669 1.947 107 98 85
2.489 2.671 1.948 104 93 78
2.492 2.669 1.951 107 98 85
2.494 2.668 1.951 110 99 87
2.488 2.673 1.936 98 90 80
2.490 2.674 1.940 98 90 80
2.489 2.673 1.942 102 92 80
2.489 2.673 1.942 103 94 81
2.490 2.674 1.946 103 94 81
2.489 2.673 1.948 105 93 82
2.490 2.674 1.952 100 88 79
2.489 2.669 1.953 104 93 81
2.488 2.672 1.953 104 93 81
2.492 2.669 1.956 103 93 83
2.489 2.673 1.954 103 90 82
2.489 2.674 1.956 103 90 82
2.510 2.669 1.924 113 102 87
2.498 2.669 1.940 111 98 86
2.512 2.671 1.941 113 107 92
2.512 2.671 1.947 111 101 88
2.517 2.672 1.945 118 108 92
2.505 2.678 1.948 113 105 91
2.520 2.673 1.940 121 110 92
2.512 2.679 1.952 115 106 90
2.536 2.673 1.952 118 106 94
2.512 2.671 1.953 113 102 87
2.510 2.671 1.956 110 98 86
2.500 2.678 1.953 106 100 86
2.506 2.678 1.956 113 102 92
2.511 2.679 1.954 114 105 91
2.518 2.680 1.956 122 109 100
2.522 2.681 1.957 117 104 92
2.024 0.363 1.179 193 168 153
2.022 0.382 1.184 202 172 153
2.043 0.379 1.185 196 165 144
2.041 0.380 1.185 185 163 141
2.018 0.387 1.180 195 172 151
2.020 0.392 1.183 201 179 157
2.024 0.385 1.184 206 183 162
2.019 0.395 1.180 178 162 148
2.024 0.394 1.184 214 190 175
2.028 0.395 1.184 221 199 177
2.038 0.398 1.175 211 191 174
2.042 0.398 1.172 188 168 156
2.042 0.395 1.174 202 182 161
2.044 0.398 1.175 211 191 174
2.034 0.385 1.184 217 188 166
2.036 0.386 1.184 217 188 169
2.041 0.387 1.184 226 204 180
2.043 0.387 1.184 233 206 178
2.047 0.387 1.184 246 219 191
2.042 0.392 1.181 225 203 182
2.038 0.395 1.179 209 189 168
2.036 0.395 1.184 232 203 184
2.040 0.392 1.183 232 203 182
2.036 0.399 1.180 218 196 172
2.042 0.394 1.179 202 182 161
2.046 0.394 1.179 202 187 163
2.046 0.392 1.181 237 214 191
2.023 0.406 1.179 171 159 145
2.023 0.401 1.183 207 187 170
2.026 0.405 1.184 218 198 181
2.030 0.405 1.184 216 196 179
2.025 0.413 1.183 202 187 168
2.030 0.416 1.184 204 184 167
2.038 0.401 1.173 190 170 154
2.044 0.400 1.168 187 165 144
2.044 0.400 1.173 190 170 158
2.035 0.404 1.179 211 189 167
2.025 0.416 1.179 186 166 149
2.047 0.425 1.183 239 211 189
2.017 0.389 1.186 193 168 153
2.030 0.397 1.185 228 206 184
2.042 0.395 1.196 174 149 140
2.042 0.398 1.201 188 163 154
2.042 0.398 1.204 198 173 163
2.042 0.398 1.209 196 176 163
2.042 0.395 1.214 205 180 175
2.037 0.404 1.203 186 166 149
2.037 0.404 1.208 193 168 158
2.043 0.406 1.204 174 150 144
2.044 0.404 1.208 184 159 145
2.038 0.403 1.212 198 173 159
2.043 0.405 1.215 59 55 49
2.044 0.407 1.214 189 164 154
2.042 0.398 1.218 199 174 164
2.042 0.397 1.221 211 186 176
2.042 0.398 1.226 202 177 167
2.042 0.398 1.231 207 182 167
2.037 0.404 1.216 208 183 173
2.037 0.404 1.220 206 181 171
2.044 0.407 1.218 189 164 154
2.044 0.404 1.220 185 153 145
2.042 0.405 1.221 62 56 49
2.038 0.404 1.230 211 186 172
2.044 0.404 1.225 199 174 164
2.044 0.403 1.228 185 160 151
2.044 0.405 1.228 63 57 47
2.042 0.395 1.234 198 173 167
2.042 0.395 1.238 219 187 179
2.042 0.398 1.244 212 178 170
2.042 0.398 1.248 225 190 178
2.038 0.403 1.232 223 193 179
2.038 0.401 1.237 212 187 177
2.042 0.405 1.234 61 57 48
2.044 0.404 1.233 207 175 167
2.044 0.403 1.238 191 166 160
2.038 0.403 1.242 215 192 170
2.038 0.401 1.245 224 194 175
2.046 0.404 1.242 198 166 158
2.044 0.406 1.242 67 63 52
2.044 0.403 1.245 210 176 168
2.042 0.405 1.248 56 50 43
2.042 0.397 1.251 218 183 171
2.042 0.398 1.256 223 188 181
2.042 0.397 1.261 223 186 186
2.038 0.400 1.250 227 202 187
2.038 0.403 1.255 227 193 180
2.046 0.404 1.250 204 171 164
2.041 0.404 1.254 58 52 46
2.044 0.401 1.254 213 181 173
2.038 0.400 1.257 230 200 185
2.038 0.400 1.262 230 196 188
2.046 0.404 1.258 197 165 157
2.044 0.406 1.262 58 56 46
2.044 0.404 1.263 207 174 172
2.042 0.397 1.264 212 179 172
2.042 0.395 1.268 226 196 181
2.042 0.395 1.273 217 182 175
2.042 0.395 1.278 225 194 180
2.038 0.401 1.267 240 205 193
2.044 0.404 1.268 200 165 158
2.048 0.407 1.269 64 61 50
2.042 0.395 1.281 213 178 170
2.042 0.395 1.286 220 188 180
2.042 0.395 1.291 226 193 185
2.042 0.395 1.294 240 197 192
2.041 0.395 1.299 74 68 61
2.042 0.395 1.298 226 184 183
2.042 0.395 1.304 229 193 186
2.042 0.395 1.308 229 186 181
2.042 0.395 1.313 224 186 186
2.042 0.395 1.316 225 191 189
2.042 0.395 1.321 227 184 180
2.042 0.395 1.326 220 173 170
2.042 0.395 1.329 228 185 185
2.042 0.395 1.334 228 194 187
2.042 0.398 1.339 225 190 182
2.042 0.395 1.343 230 187 178
2.042 0.395 1.346 221 178 173
2.042 0.395 1.351 228 185 180
2.042 0.395 1.356 250 214 207
2.042 0.395 1.359 231 188 183
2.042 0.395 1.364 228 192 180
2.042 0.395 1.369 243 207 195
2.042 0.395 1.374 252 209 204
2.042 0.395 1.377 238 195 185
2.042 0.395 1.382 231 195 183
2.042 0.395 1.387 236 200 188
2.042 0.395 1.392 231 195 183
2.042 0.395 1.395 238 195 190
2.042 0.395 1.399 238 204 197
2.042 0.395 1.405 216 182 175
2.042 0.395 1.409 235 199 192
2.042 0.395 1.413 218 182 170
2.042 0.395 1.417 208 172 165
2.042 0.395 1.423 218 187 172
2.042 0.395 1.427 215 182 175
2.042 0.395 1.431 213 179 172
2.042 0.395 1.435 210 177 170
2.042 0.395 1.441 210 184 174
2.042 0.395 1.445 208 181 167
2.042 0.395 1.450 215 188 174
2.042 0.395 1.453 203 172 157
2.042 0.395 1.459 212 181 167
2.042 0.395 1.464 202 171 157
2.042 0.395 1.468 219 188 169
2.042 0.395 1.471 209 183 169
2.042 0.395 1.476 192 176 162
2.042 0.395 1.481 209 183 169
2.042 0.395 1.486 197 171 157
2.042 0.395 1.490 197 171 161
2.042 0.395 1.494 202 168 161
2.042 0.395 1.500 194 168 154
2.042 0.395 1.505 194 173 161
2.042 0.398 1.510 187 171 152
2.042 0.395 1.513 201 180 168
2.042 0.398 1.518 201 175 166
2.042 0.395 1.523 184 163 147
2.042 0.397 1.528 194 173 156
2.042 0.395 1.531 191 170 154
1.053 0.623 1.155 232 215 181
1.053 0.623 1.161 219 208 176
1.052 0.624 1.166 227 214 178
1.050 0.627 1.153 208 196 164
1.053 0.630 1.162 99 95 80
1.052 0.630 1.166 96 89 74
1.053 0.630 1.165 97 92 78
1.053 0.623 1.169 221 210 178
1.048 0.623 1.174 227 214 178
1.053 0.621 1.173 233 231 190
1.046 0.626 1.174 114 107 87
1.052 0.630 1.168 91 87 70
1.052 0.630 1.172 108 104 86
1.053 0.630 1.168 97 93 76
1.053 0.630 1.172 111 102 86
1.048 0.629 1.173 115 113 95
1.052 0.631 1.173 107 97 81
1.055 0.629 1.173 102 98 78
1.054 0.631 1.173 110 103 84
1.052 0.632 1.177 99 95 80
1.053 0.632 1.177 114 107 87
1.058 0.624 1.173 212 208 178
1.058 0.625 1.173 116 113 92
1.056 0.630 1.173 111 104 85
1.059 0.629 1.174 107 103 83
1.073 0.630 1.184 152 136 114
1.038 0.624 1.190 208 192 166
1.048 0.612 1.185 197 184 156
1.053 0.623 1.208 180 171 147
1.053 0.623 1.213 182 176 153
1.053 0.624 1.218 189 178 157
1.053 0.624 1.222 187 176 153
1.053 0.624 1.226 201 186 163
1.053 0.624 1.232 201 186 155
1.053 0.623 1.237 200 184 157
1.053 0.623 1.240 200 184 157
1.052 0.623 1.245 200 184 157
1.053 0.623 1.250 196 186 153
1.053 0.623 1.256 205 187 157
1.053 0.623 1.261 203 181 157
1.053 0.623 1.264 191 168 140
1.053 0.623 1.269 195 170 148
1.072 0.644 1.189 154 138 112
1.053 0.623 1.293 200 175 156
1.053 0.621 1.357 189 172 149
1.053 0.621 1.370 200 187 164
1.053 0.621 1.381 189 176 154
1.053 0.621 1.386 187 174 150
1.054 0.620 1.391 206 188 161
1.053 0.621 1.395 189 169 143
1.053 0.621 1.400 194 177 153
1.053 0.621 1.405 209 191 163
1.053 0.620 1.411 203 192 162
1.054 0.620 1.415 209 200 174
1.054 0.620 1.419 203 190 166
1.054 0.620 1.424 227 215 185
1.054 0.620 1.429 194 183 152
1.054 0.618 1.435 219 207 177
1.054 0.620 1.440 224 206 177
1.044 0.630 1.425 145 127 107
1.054 0.618 1.445 215 204 173
1.054 0.618 1.450 230 208 182
1.053 0.619 1.454 189 176 151
1.054 0.618 1.459 223 211 180
1.054 0.618 1.464 227 209 176
1.054 0.618 1.470 217 209 172
1.054 0.618 1.474 215 203 168
2.042 0.395 1.536 179 168 154
2.042 0.395 1.542 179 168 154
2.042 0.395 1.546 189 172 158
2.042 0.395 1.550 188 167 151
2.042 0.398 1.555 179 158 142
2.042 0.397 1.560 179 163 139
2.042 0.398 1.565 186 170 151
2.042 0.398 1.570 190 169 153
2.042 0.398 1.575 165 155 134
2.042 0.395 1.578 186 165 148
2.042 0.395 1.583 174 158 139
2.042 0.398 1.589 176 160 137
2.042 0.395 1.593 176 164 151
2.042 0.398 1.597 176 160 141
2.042 0.397 1.602 171 150 129
2.042 0.395 1.607 190 174 150
2.042 0.398 1.612 180 164 146
2.042 0.398 1.617 169 159 134
2.042 0.398 1.621 187 171 148
2.042 0.398 1.626 182 166 148
2.042 0.398 1.631 178 162 143
2.042 0.398 1.636 180 164 146
2.042 0.395 1.641 185 169 146
2.042 0.398 1.645 173 157 134
2.042 0.398 1.649 161 152 127
2.042 0.398 1.655 175 154 134
2.042 0.398 1.660 182 173 152
2.042 0.398 1.665 166 150 131
2.042 0.398 1.669 168 152 134
2.042 0.398 1.674 184 168 145
2.042 0.398 1.679 173 157 138
2.042 0.398 1.684 173 164 143
2.042 0.398 1.689 156 147 122
2.042 0.399 1.694 170 161 136
2.042 0.398 1.698 170 161 136
2.042 0.398 1.703 163 147 129
2.042 0.399 1.709 165 157 136
2.038 0.405 1.698 173 164 139
2.042 0.398 1.713 163 157 136
2.042 0.399 1.719 168 152 138
2.042 0.399 1.724 156 150 129
2.042 0.399 1.727 161 145 127
2.037 0.404 1.716 177 168 148
2.038 0.403 1.721 180 164 146
2.038 0.404 1.727 175 168 148
2.041 0.404 1.726 57 53 43
2.042 0.398 1.732 168 160 135
2.042 0.398 1.738 165 157 136
2.042 0.399 1.743 173 164 144
2.038 0.404 1.732 180 164 141
2.041 0.404 1.730 50 49 40
2.041 0.404 1.733 55 53 44
2.037 0.406 1.738 181 172 147
2.038 0.404 1.743 179 170 150
2.041 0.404 1.738 55 51 40
2.041 0.404 1.743 60 55 45
2.042 0.398 1.748 150 142 121
2.042 0.398 1.752 165 156 135
2.042 0.399 1.757 148 140 120
2.037 0.407 1.749 186 171 152
2.041 0.404 1.748 59 55 44
2.041 0.405 1.751 60 55 47
2.038 0.404 1.752 181 167 148
2.038 0.405 1.757 166 162 135
2.041 0.404 1.756 59 55 43
2.042 0.399 1.762 156 147 126
2.042 0.398 1.768 150 140 119
2.042 0.399 1.773 156 147 126
2.041 0.404 1.762 55 49 41
2.041 0.404 1.767 58 53 45
2.037 0.409 1.764 173 165 144
2.037 0.407 1.774 181 168 144
2.041 0.405 1.769 59 53 45
2.041 0.405 1.774 56 51 43
2.037 0.409 1.769 177 168 142
2.042 0.399 1.778 161 148 125
2.042 0.399 1.782 158 149 125
2.042 0.398 1.787 167 152 130
2.041 0.405 1.779 57 52 46
2.041 0.404 1.784 63 57 49
2.037 0.409 1.780 172 163 142
2.037 0.409 1.784 169 160 138
2.037 0.407 1.788 170 162 137
2.041 0.405 1.787 58 53 45
2.042 0.399 1.792 135 126 104
2.042 0.399 1.798 144 135 116
2.042 0.399 1.803 146 138 118
2.042 0.399 1.808 147 138 117
2.037 0.407 1.793 168 158 133
2.041 0.404 1.792 61 57 46
2.041 0.405 1.797 61 57 46
2.041 0.405 1.802 55 52 41
2.041 0.405 1.805 60 55 47
2.036 0.413 1.803 170 162 137
2.037 0.412 1.806 164 155 133
2.042 0.399 1.813 146 134 114
2.042 0.399 1.817 148 140 116
2.042 0.399 1.822 153 147 122
2.037 0.407 1.809 169 160 138
2.041 0.404 1.811 58 53 45
2.041 0.404 1.816 58 53 45
2.037 0.409 1.815 176 168 142
2.041 0.405 1.821 54 53 44
2.037 0.409 1.820 174 160 136
2.038 0.409 1.823 167 159 135
2.042 0.399 1.828 151 143 126
2.042 0.399 1.833 143 135 116
2.042 0.399 1.838 153 141 120
2.041 0.405 1.825 59 58 49
2.041 0.405 1.829 58 55 44
2.037 0.410 1.829 172 162 136
2.041 0.405 1.834 60 55 47
2.041 0.405 1.839 60 52 45
2.038 0.409 1.834 172 164 141
2.042 0.399 1.844 150 143 118
2.042 0.399 1.849 154 141 120
2.042 0.399 1.852 150 142 118
2.038 0.403 1.840 87 82 73
2.040 0.405 1.843 68 60 53
2.040 0.405 1.847 58 53 43
2.037 0.410 1.840 177 164 144
2.037 0.412 1.846 177 170 145
2.038 0.403 1.849 81 75 66
2.041 0.405 1.852 58 54 46
2.038 0.409 1.850 176 165 138
2.037 0.409 1.855 172 165 136
2.042 0.399 1.858 158 154 127
2.042 0.399 1.863 145 137 114
2.042 0.399 1.869 155 143 119
2.040 0.405 1.858 66 63 52
2.041 0.405 1.862 63 57 48
2.040 0.405 1.871 64 58 51
2.041 0.405 1.867 64 58 49
