1.119 1.004 1.151 129 127 106
1.121 1.007 1.151 210 197 167
1.124 1.018 1.143 205 193 163
1.121 1.008 1.147 209 196 167
1.120 1.012 1.148 134 132 110
1.123 1.012 1.150 141 136 113
1.121 1.017 1.149 135 130 108
1.124 1.017 1.149 212 197 173
1.124 1.018 1.151 131 129 105
1.123 1.023 1.149 119 115 91
1.066 0.774 1.153 199 190 162
1.066 0.774 1.157 204 194 167
1.066 0.775 1.156 142 136 113
1.067 0.781 1.155 201 188 163
1.067 0.781 1.160 208 198 167
1.066 0.774 1.162 195 191 161
1.066 0.774 1.167 204 193 166
1.067 0.781 1.165 205 201 172
1.066 0.785 1.155 138 130 109
1.067 0.788 1.155 141 133 110
1.070 0.788 1.153 137 131 109
1.070 0.788 1.156 192 182 151
1.071 0.793 1.153 128 122 99
1.072 0.794 1.154 201 189 158
1.069 0.793 1.155 148 138 116
1.071 0.799 1.155 144 138 114
1.071 0.793 1.156 149 140 117
1.071 0.794 1.159 209 198 167
1.070 0.788 1.161 212 199 173
1.070 0.788 1.167 199 185 164
1.071 0.794 1.163 205 193 161
1.065 0.774 1.173 201 186 161
1.067 0.781 1.169 206 192 166
1.067 0.782 1.174 205 191 165
1.067 0.772 1.178 120 118 93
1.066 0.774 1.177 203 193 169
1.071 0.768 1.181 126 121 98
1.072 0.768 1.181 119 116 93
1.066 0.773 1.181 231 219 187
1.072 0.774 1.181 127 119 98
1.070 0.776 1.177 126 121 98
1.067 0.781 1.179 235 223 191
1.071 0.781 1.177 125 117 95
1.070 0.776 1.183 230 215 189
1.075 0.768 1.181 128 123 100
1.079 0.772 1.183 131 125 101
1.073 0.773 1.181 130 122 100
1.076 0.774 1.181 128 123 100
1.077 0.773 1.181 132 126 102
1.082 0.772 1.181 138 129 103
1.084 0.770 1.183 143 136 109
1.087 0.770 1.181 139 131 108
1.085 0.768 1.183 255 240 194
1.083 0.775 1.181 131 125 101
1.084 0.775 1.181 143 134 111
1.088 0.774 1.181 140 134 107
1.075 0.778 1.181 126 118 95
1.072 0.779 1.181 124 118 95
1.072 0.779 1.183 242 229 197
1.077 0.778 1.181 127 119 98
1.078 0.776 1.183 131 125 102
1.076 0.781 1.181 125 117 95
1.073 0.782 1.181 124 118 95
1.077 0.781 1.181 128 120 99
1.079 0.781 1.181 130 124 101
1.077 0.780 1.183 250 237 199
1.079 0.781 1.183 255 243 205
1.081 0.776 1.181 133 128 103
1.085 0.779 1.181 138 132 106
1.088 0.779 1.183 134 129 102
1.082 0.781 1.181 126 124 99
1.084 0.780 1.183 134 129 102
1.084 0.784 1.183 254 243 200
1.070 0.788 1.172 202 192 168
1.071 0.796 1.168 206 195 168
1.071 0.796 1.173 207 196 165
1.072 0.786 1.177 125 117 95
1.070 0.788 1.177 211 194 165
1.070 0.787 1.180 229 219 187
1.071 0.794 1.178 215 199 165
1.072 0.793 1.174 127 119 96
1.073 0.798 1.174 124 113 93
1.075 0.786 1.181 126 119 100
1.077 0.786 1.181 122 116 96
1.078 0.786 1.181 132 124 102
1.072 0.791 1.181 226 221 183
1.076 0.791 1.181 122 117 94
1.079 0.791 1.181 127 122 99
1.077 0.791 1.183 122 119 99
1.082 0.785 1.183 132 124 101
1.081 0.786 1.183 129 124 101
1.084 0.786 1.181 132 125 99
1.087 0.785 1.181 134 132 107
1.082 0.791 1.181 132 126 102
1.084 0.791 1.181 134 126 103
1.088 0.790 1.181 136 129 106
1.084 0.788 1.183 134 126 103
1.075 0.799 1.177 125 114 94
1.075 0.796 1.183 236 227 187
1.077 0.796 1.181 126 116 95
1.078 0.796 1.181 129 122 100
1.079 0.799 1.181 128 123 100
1.078 0.798 1.183 250 237 199
1.081 0.796 1.181 126 118 95
1.083 0.796 1.181 134 125 102
1.084 0.794 1.181 132 124 101
1.087 0.794 1.181 134 126 103
1.084 0.799 1.181 133 125 102
1.083 0.799 1.183 248 239 201
1.085 0.798 1.181 134 126 103
1.088 0.798 1.181 135 127 104
1.071 0.803 1.156 125 122 99
1.072 0.806 1.156 139 131 110
1.072 0.808 1.159 143 135 113
1.072 0.803 1.155 201 192 164
1.075 0.809 1.153 210 197 172
1.073 0.810 1.157 202 188 167
1.072 0.810 1.160 147 140 117
1.072 0.803 1.161 204 194 163
1.072 0.803 1.166 209 197 166
1.073 0.810 1.162 204 194 171
1.073 0.810 1.167 207 195 164
1.077 0.816 1.155 202 193 166
1.075 0.820 1.160 140 132 109
1.077 0.816 1.160 209 196 170
1.076 0.826 1.153 134 126 103
1.079 0.832 1.154 208 198 171
1.077 0.825 1.156 199 195 162
1.075 0.819 1.163 132 124 101
1.077 0.817 1.165 204 195 171
1.077 0.825 1.161 208 198 171
1.077 0.827 1.161 141 132 109
1.076 0.825 1.166 144 138 114
1.077 0.825 1.167 204 194 167
1.072 0.803 1.171 204 194 166
1.072 0.803 1.175 205 194 163
1.075 0.811 1.173 208 194 168
1.077 0.813 1.173 119 111 89
1.077 0.815 1.174 122 117 94
1.076 0.803 1.177 122 114 91
1.072 0.803 1.179 221 208 177
1.077 0.802 1.181 131 120 100
1.075 0.808 1.181 239 226 191
1.078 0.804 1.181 126 118 96
1.082 0.800 1.181 133 125 103
1.084 0.803 1.181 130 123 100
1.088 0.800 1.183 255 245 201
1.081 0.804 1.181 129 124 100
1.083 0.804 1.181 128 123 99
1.087 0.804 1.181 134 124 103
1.088 0.808 1.181 128 123 100
1.073 0.810 1.178 205 196 159
1.078 0.810 1.181 128 118 97
1.078 0.811 1.183 235 222 187
1.079 0.815 1.181 129 121 98
1.082 0.810 1.181 128 119 96
1.084 0.810 1.181 132 124 101
1.085 0.809 1.181 128 123 100
1.088 0.811 1.183 132 126 103
1.083 0.814 1.181 124 118 91
1.082 0.815 1.183 245 233 197
1.084 0.814 1.181 130 123 100
1.087 0.814 1.181 133 127 103
1.076 0.819 1.169 204 193 166
1.076 0.820 1.174 204 190 165
1.078 0.821 1.174 135 130 107
1.078 0.826 1.172 209 195 170
1.079 0.832 1.168 209 199 168
1.082 0.827 1.173 133 125 102
1.082 0.832 1.173 130 121 98
1.077 0.817 1.179 205 192 161
1.078 0.823 1.181 225 212 181
1.084 0.817 1.181 128 120 98
1.088 0.817 1.181 136 129 105
1.085 0.816 1.183 243 227 193
1.085 0.817 1.183 128 120 97
1.081 0.821 1.180 124 119 96
1.084 0.822 1.181 128 120 98
1.087 0.822 1.181 128 120 98
1.077 0.825 1.177 206 196 168
1.082 0.825 1.180 121 115 92
1.082 0.827 1.181 243 230 199
1.084 0.827 1.181 123 118 95
1.084 0.827 1.183 121 115 92
1.088 0.827 1.183 128 123 100
1.087 0.831 1.181 123 118 95
1.085 0.831 1.183 245 232 201
1.089 0.769 1.181 139 132 106
1.090 0.768 1.181 255 255 214
1.090 0.769 1.181 142 135 112
1.093 0.769 1.181 141 137 107
1.095 0.768 1.181 141 136 112
1.095 0.770 1.183 255 255 218
1.091 0.774 1.181 141 136 109
1.089 0.774 1.183 142 136 109
1.094 0.774 1.181 134 132 107
1.096 0.773 1.181 144 138 114
1.096 0.768 1.181 145 137 114
1.099 0.772 1.181 255 255 222
1.100 0.772 1.181 145 138 112
1.103 0.772 1.181 145 138 109
1.097 0.773 1.181 145 139 113
1.101 0.773 1.181 139 132 106
1.103 0.774 1.181 236 215 175
1.090 0.779 1.181 133 128 103
1.091 0.778 1.183 140 135 112
1.095 0.779 1.181 141 136 113
1.089 0.784 1.181 136 133 110
1.090 0.784 1.181 142 137 113
1.094 0.782 1.181 138 132 108
1.096 0.782 1.181 142 137 110
1.096 0.778 1.181 147 139 116
1.099 0.778 1.181 145 137 114
1.101 0.778 1.181 144 135 109
1.102 0.776 1.181 148 141 118
1.100 0.781 1.181 140 133 107
1.097 0.782 1.181 147 142 118
1.101 0.781 1.181 148 139 114
1.103 0.781 1.181 144 138 112
1.107 0.772 1.181 148 143 116
1.108 0.768 1.183 119 117 91
1.105 0.775 1.181 144 138 112
1.108 0.774 1.181 232 211 175
1.108 0.773 1.183 125 117 95
1.107 0.776 1.181 146 141 116
1.109 0.778 1.183 141 133 112
1.106 0.780 1.181 147 142 119
1.108 0.780 1.181 142 137 114
1.111 0.782 1.183 133 125 102
1.089 0.786 1.183 252 243 204
1.094 0.786 1.181 255 255 220
1.095 0.787 1.181 145 139 113
1.091 0.788 1.181 134 129 104
1.090 0.788 1.183 135 130 106
1.096 0.791 1.181 140 135 110
1.096 0.786 1.181 141 135 108
1.097 0.787 1.181 255 248 212
1.099 0.786 1.181 139 132 106
1.102 0.786 1.181 149 141 115
1.101 0.786 1.181 146 137 112
1.097 0.791 1.181 140 138 113
1.100 0.791 1.181 141 136 109
1.102 0.788 1.181 255 255 214
1.101 0.791 1.181 145 137 115
1.103 0.791 1.181 145 137 114
1.089 0.793 1.181 139 131 108
1.091 0.792 1.183 140 132 109
1.093 0.792 1.181 136 131 107
1.091 0.798 1.181 143 136 113
1.089 0.798 1.181 135 127 104
1.094 0.797 1.181 142 136 109
1.101 0.796 1.181 142 135 111
1.102 0.796 1.181 142 137 114
1.096 0.797 1.181 137 132 108
1.099 0.797 1.181 140 135 110
1.103 0.799 1.181 143 138 111
1.105 0.786 1.181 147 138 113
1.107 0.786 1.181 146 141 114
1.108 0.786 1.181 143 138 112
1.112 0.786 1.183 140 133 107
1.106 0.790 1.181 148 142 113
1.108 0.790 1.181 148 142 113
1.107 0.791 1.181 255 255 230
1.109 0.790 1.181 149 143 116
1.112 0.791 1.181 173 157 135
1.105 0.794 1.181 147 142 115
1.107 0.794 1.181 143 137 110
1.108 0.794 1.181 147 141 114
1.111 0.794 1.181 148 142 115
1.106 0.799 1.181 146 140 114
1.108 0.799 1.181 141 137 107
1.112 0.798 1.180 148 140 117
1.111 0.799 1.180 147 142 117
1.113 0.793 1.183 147 138 115
1.113 0.798 1.181 146 138 115
1.114 0.797 1.183 157 137 117
1.089 0.802 1.183 128 120 98
1.091 0.800 1.183 255 249 211
1.089 0.803 1.183 134 126 104
1.095 0.802 1.181 134 132 107
1.093 0.802 1.183 139 133 110
1.089 0.808 1.181 136 131 108
1.091 0.808 1.181 131 129 105
1.096 0.805 1.181 135 130 103
1.094 0.806 1.181 136 131 104
1.096 0.802 1.181 141 136 111
1.100 0.800 1.181 143 136 114
1.097 0.803 1.181 255 253 216
1.101 0.800 1.181 143 138 111
1.097 0.805 1.181 148 142 115
1.100 0.805 1.181 141 132 107
1.102 0.804 1.181 143 134 109
1.101 0.804 1.183 255 255 214
1.093 0.811 1.181 141 133 110
1.095 0.810 1.181 135 127 104
1.090 0.813 1.181 135 127 105
1.096 0.815 1.181 140 131 108
1.094 0.815 1.183 140 131 105
1.096 0.810 1.181 141 132 107
1.099 0.810 1.181 141 134 105
1.101 0.809 1.181 143 137 110
1.103 0.809 1.181 144 136 112
1.097 0.815 1.181 142 134 111
1.100 0.815 1.181 137 132 105
1.101 0.814 1.181 141 134 108
1.103 0.814 1.181 144 138 111
1.108 0.803 1.181 143 136 114
1.111 0.803 1.181 146 140 116
1.105 0.804 1.181 142 135 111
1.107 0.804 1.181 146 140 116
1.108 0.808 1.181 146 138 115
1.107 0.806 1.183 255 244 200
1.109 0.808 1.181 255 255 222
1.112 0.808 1.180 146 139 113
1.113 0.803 1.181 146 139 113
1.114 0.803 1.180 140 132 109
1.113 0.806 1.181 222 195 169
1.113 0.808 1.181 148 142 113
1.115 0.808 1.181 144 136 113
1.106 0.809 1.181 144 136 113
1.108 0.811 1.183 141 136 109
1.111 0.811 1.181 143 138 114
1.106 0.815 1.181 146 139 110
1.117 0.810 1.181 222 197 163
1.117 0.810 1.183 142 134 111
1.113 0.813 1.181 148 139 114
1.114 0.813 1.181 146 139 110
1.089 0.817 1.181 136 129 107
1.091 0.816 1.181 130 125 102
1.090 0.819 1.183 255 241 203
1.096 0.820 1.183 255 249 205
1.090 0.822 1.181 129 124 101
1.089 0.822 1.183 130 123 100
1.095 0.821 1.181 138 131 108
1.093 0.821 1.183 135 128 109
1.097 0.819 1.181 142 132 111
1.096 0.820 1.183 141 133 111
1.102 0.819 1.181 144 138 111
1.101 0.819 1.183 140 134 108
1.100 0.823 1.181 141 133 110
1.101 0.823 1.181 142 136 109
1.103 0.822 1.181 139 134 108
1.101 0.821 1.183 255 251 212
1.091 0.826 1.181 134 126 104
1.089 0.827 1.181 131 124 102
1.096 0.825 1.181 137 130 108
1.093 0.825 1.183 137 130 110
1.089 0.832 1.181 123 118 95
1.090 0.831 1.181 136 128 105
1.096 0.828 1.181 136 128 105
1.095 0.829 1.181 132 125 103
1.093 0.831 1.181 134 126 104
1.097 0.825 1.181 136 128 106
1.102 0.827 1.181 137 132 105
1.099 0.828 1.181 141 133 110
1.101 0.828 1.181 135 130 105
1.103 0.832 1.181 141 133 110
1.106 0.817 1.181 138 132 105
1.107 0.819 1.181 143 134 109
1.112 0.816 1.181 148 142 115
1.108 0.819 1.181 145 139 110
1.106 0.822 1.181 139 132 109
1.108 0.823 1.181 143 137 110
1.105 0.822 1.183 255 249 214
1.108 0.822 1.181 255 255 224
1.111 0.822 1.181 144 138 111
1.112 0.822 1.181 144 139 112
1.112 0.823 1.181 255 255 224
1.113 0.816 1.181 151 145 118
1.115 0.816 1.181 145 139 112
1.118 0.816 1.181 147 142 115
1.119 0.816 1.184 202 181 145
1.119 0.816 1.184 129 124 97
1.114 0.821 1.181 144 139 115
1.117 0.822 1.181 144 139 112
1.119 0.821 1.181 147 140 114
1.105 0.827 1.181 141 136 109
1.107 0.827 1.181 143 136 112
1.108 0.827 1.181 145 139 112
1.111 0.827 1.181 148 140 117
1.106 0.832 1.181 145 138 115
1.108 0.832 1.181 145 138 115
1.109 0.832 1.181 142 134 111
1.115 0.825 1.181 255 244 202
1.113 0.827 1.181 144 137 114
1.114 0.827 1.181 149 143 116
1.117 0.826 1.181 143 141 116
1.119 0.826 1.181 147 141 115
1.119 0.827 1.183 208 199 161
1.113 0.829 1.181 146 139 116
1.113 0.831 1.181 144 137 113
1.115 0.831 1.180 146 141 115
1.118 0.831 1.181 145 140 113
1.120 0.822 1.184 129 124 99
1.121 0.827 1.183 120 115 92
1.120 0.829 1.181 146 140 113
1.123 0.832 1.184 188 177 145
1.079 0.833 1.159 206 196 169
1.078 0.838 1.160 134 126 104
1.083 0.840 1.155 208 199 171
1.079 0.833 1.163 202 192 169
1.078 0.839 1.161 122 117 94
1.079 0.839 1.165 132 126 102
1.083 0.840 1.161 203 193 166
1.081 0.846 1.163 139 131 108
1.083 0.840 1.166 207 193 167
1.081 0.847 1.165 124 118 98
1.084 0.850 1.154 207 197 170
1.084 0.850 1.159 207 197 170
1.087 0.857 1.155 202 198 168
1.084 0.850 1.163 211 201 170
1.083 0.856 1.161 141 133 110
1.087 0.857 1.161 214 200 174
1.083 0.856 1.165 142 137 114
1.087 0.857 1.166 206 196 168
1.079 0.833 1.173 206 196 168
1.083 0.839 1.172 127 121 98
1.083 0.840 1.171 203 191 160
1.084 0.844 1.169 130 125 101
1.079 0.833 1.179 211 196 171
1.084 0.834 1.181 124 119 96
1.087 0.835 1.183 123 118 95
1.085 0.837 1.181 125 118 96
1.082 0.841 1.177 202 192 164
1.083 0.840 1.180 219 206 175
1.085 0.843 1.180 123 118 95
1.084 0.846 1.181 239 226 195
1.087 0.846 1.180 122 117 93
1.084 0.851 1.168 210 197 166
1.085 0.849 1.169 123 118 95
1.083 0.855 1.168 131 126 103
1.087 0.852 1.169 127 119 96
1.088 0.855 1.172 136 133 110
1.084 0.850 1.173 204 193 166
1.084 0.859 1.168 118 111 91
1.087 0.857 1.171 202 192 165
1.088 0.861 1.171 134 128 104
1.087 0.858 1.175 204 194 170
1.084 0.850 1.179 212 200 169
1.088 0.851 1.180 124 119 96
1.085 0.856 1.180 216 204 173
1.088 0.864 1.153 212 202 170
1.088 0.864 1.157 206 196 172
1.088 0.864 1.162 208 198 175
1.085 0.867 1.167 123 117 97
1.088 0.874 1.165 135 130 106
1.088 0.865 1.168 214 200 179
1.087 0.869 1.172 117 111 93
1.088 0.865 1.173 209 198 171
1.088 0.880 1.173 143 133 112
1.087 0.867 1.179 211 196 171
1.089 0.835 1.181 127 121 98
1.089 0.835 1.184 245 236 199
1.090 0.834 1.183 131 122 99
1.096 0.834 1.181 135 127 105
1.094 0.834 1.183 132 125 102
1.095 0.835 1.183 255 252 215
1.089 0.839 1.181 123 120 97
1.089 0.839 1.181 128 122 99
1.094 0.839 1.181 130 122 101
1.093 0.839 1.181 132 125 103
1.097 0.834 1.181 136 128 105
1.099 0.833 1.183 136 127 104
1.101 0.833 1.181 144 132 110
1.103 0.835 1.181 138 131 108
1.097 0.838 1.181 135 127 105
1.096 0.839 1.181 131 124 102
1.099 0.837 1.183 255 252 209
1.101 0.838 1.181 137 130 106
1.102 0.837 1.181 137 130 106
1.102 0.838 1.183 255 251 209
1.093 0.844 1.181 130 122 101
1.096 0.844 1.181 131 124 100
1.089 0.845 1.181 123 117 97
1.091 0.845 1.181 125 118 95
1.094 0.847 1.181 130 121 96
1.096 0.846 1.183 132 124 100
1.096 0.843 1.181 135 127 104
1.100 0.843 1.181 136 131 108
1.103 0.841 1.181 137 132 105
1.101 0.841 1.183 135 127 104
1.097 0.846 1.181 132 125 102
1.100 0.846 1.181 131 126 103
1.101 0.846 1.181 136 131 106
1.103 0.845 1.183 139 133 106
1.107 0.835 1.181 139 132 109
1.111 0.835 1.181 148 135 111
1.106 0.839 1.183 255 251 212
1.108 0.837 1.181 143 134 109
1.111 0.839 1.181 255 253 217
1.113 0.835 1.181 145 137 111
1.114 0.835 1.181 144 138 111
1.119 0.834 1.181 146 140 111
1.118 0.834 1.181 145 140 113
1.113 0.839 1.181 142 135 109
1.115 0.839 1.181 146 139 116
1.118 0.839 1.181 144 139 112
1.119 0.839 1.181 144 138 109
1.106 0.840 1.181 137 132 109
1.108 0.840 1.181 138 133 109
1.109 0.840 1.181 142 134 112
1.112 0.840 1.181 143 134 109
1.106 0.845 1.181 139 133 106
1.108 0.845 1.181 136 131 106
1.109 0.845 1.181 144 137 113
1.114 0.840 1.181 255 255 216
1.113 0.844 1.181 144 137 113
1.117 0.844 1.181 146 139 116
1.119 0.843 1.181 255 255 216
1.119 0.843 1.183 142 137 112
1.113 0.845 1.181 146 139 116
1.117 0.847 1.181 147 139 113
1.119 0.847 1.181 146 138 114
1.090 0.849 1.181 128 120 98
1.091 0.849 1.181 129 121 99
1.089 0.850 1.183 244 232 197
1.094 0.851 1.183 251 238 201
1.090 0.853 1.181 124 116 95
1.089 0.855 1.180 128 118 97
1.093 0.852 1.181 122 116 92
1.095 0.852 1.181 129 121 99
1.096 0.852 1.183 255 240 205
1.096 0.851 1.181 127 120 97
1.099 0.851 1.181 135 126 100
1.103 0.851 1.181 133 126 103
1.101 0.851 1.183 137 124 104
1.097 0.856 1.181 130 125 100
1.100 0.856 1.181 136 127 104
1.101 0.856 1.181 136 127 104
1.103 0.855 1.181 139 131 107
1.101 0.852 1.183 255 241 201
1.091 0.857 1.181 123 115 92
1.090 0.858 1.180 129 121 99
1.094 0.857 1.181 127 120 97
1.096 0.856 1.181 126 124 100
1.089 0.863 1.181 242 226 192
1.091 0.863 1.180 125 118 96
1.093 0.862 1.181 124 119 96
1.095 0.862 1.181 126 121 98
1.101 0.859 1.181 130 122 100
1.102 0.858 1.183 138 132 105
1.096 0.862 1.181 131 124 102
1.099 0.861 1.181 130 122 100
1.103 0.863 1.181 135 131 104
1.105 0.850 1.181 137 129 106
1.108 0.850 1.181 146 134 110
1.108 0.850 1.181 137 128 105
1.112 0.850 1.181 141 133 110
1.106 0.853 1.183 140 132 109
1.105 0.855 1.183 255 245 209
1.109 0.853 1.181 144 135 110
1.112 0.853 1.181 143 134 111
1.108 0.855 1.181 139 131 105
1.109 0.855 1.181 255 247 210
1.113 0.849 1.181 147 135 111
1.115 0.849 1.181 149 140 114
1.118 0.851 1.181 144 135 110
1.119 0.851 1.181 144 135 110
1.115 0.852 1.181 145 137 111
1.114 0.853 1.181 143 134 111
1.107 0.857 1.181 139 131 107
1.105 0.858 1.181 136 129 103
1.108 0.857 1.181 139 132 108
1.111 0.857 1.183 140 134 107
1.106 0.863 1.181 132 127 100
1.108 0.863 1.181 135 129 103
1.109 0.862 1.181 137 132 107
1.112 0.863 1.181 138 133 108
1.113 0.857 1.181 144 139 114
1.114 0.857 1.181 137 132 107
1.113 0.856 1.183 255 254 212
1.117 0.856 1.181 144 137 113
1.118 0.857 1.181 255 255 214
1.119 0.856 1.181 141 133 110
1.115 0.862 1.181 140 135 111
1.113 0.863 1.181 139 132 108
1.118 0.862 1.181 140 135 111
1.119 0.861 1.181 144 137 113
1.120 0.834 1.180 145 139 112
1.124 0.835 1.183 146 140 113
1.123 0.838 1.181 148 139 111
1.125 0.839 1.183 140 132 109
1.120 0.843 1.181 146 140 113
1.123 0.844 1.180 142 135 109
1.125 0.843 1.181 137 117 98
1.121 0.847 1.181 140 134 107
1.124 0.847 1.180 146 139 116
1.125 0.846 1.181 139 134 110
1.127 0.847 1.183 139 112 86
1.125 0.851 1.181 144 138 111
1.126 0.850 1.183 145 138 116
1.123 0.852 1.180 146 140 111
1.124 0.856 1.181 148 142 116
1.125 0.856 1.181 154 148 121
1.127 0.855 1.181 137 132 107
1.121 0.856 1.181 147 140 117
1.121 0.859 1.181 143 138 114
1.124 0.858 1.181 255 253 209
1.124 0.859 1.181 143 135 112
1.126 0.859 1.180 147 139 116
1.127 0.857 1.183 145 138 114
1.127 0.862 1.181 244 215 177
1.125 0.863 1.181 146 139 115
1.126 0.863 1.181 153 145 119
1.129 0.863 1.181 146 139 117
1.089 0.871 1.155 208 198 167
1.089 0.871 1.160 216 198 175
1.090 0.879 1.156 211 197 171
1.089 0.871 1.165 211 197 175
1.090 0.879 1.161 217 199 175
1.089 0.879 1.167 129 124 100
1.090 0.879 1.167 215 201 175
1.093 0.887 1.154 215 197 173
1.091 0.887 1.159 213 195 171
1.095 0.894 1.155 213 195 171
1.093 0.880 1.166 136 128 109
1.093 0.880 1.167 128 120 97
1.093 0.887 1.165 215 197 173
1.094 0.894 1.161 213 199 173
1.095 0.892 1.162 126 119 96
1.095 0.889 1.167 131 126 103
1.094 0.894 1.167 208 193 168
1.096 0.895 1.167 137 129 106
1.089 0.865 1.169 130 125 101
1.090 0.870 1.169 126 119 97
1.089 0.873 1.169 207 197 169
1.089 0.873 1.174 209 199 171
1.089 0.880 1.173 209 199 171
1.089 0.871 1.179 229 216 185
1.091 0.865 1.183 250 236 199
1.093 0.868 1.180 126 119 99
1.094 0.867 1.181 126 120 100
1.096 0.865 1.183 129 122 103
1.095 0.868 1.183 249 235 197
1.095 0.870 1.181 125 118 96
1.100 0.865 1.180 133 126 103
1.097 0.864 1.183 130 122 100
1.101 0.864 1.181 134 128 101
1.102 0.867 1.183 130 125 100
1.096 0.870 1.181 131 123 104
1.099 0.870 1.181 127 120 97
1.099 0.870 1.183 254 237 203
1.101 0.870 1.181 130 123 97
1.103 0.870 1.183 255 239 206
1.093 0.874 1.179 121 116 93
1.090 0.880 1.177 208 193 167
1.096 0.875 1.181 123 118 94
1.090 0.877 1.180 225 215 183
1.095 0.876 1.180 121 115 96
1.100 0.874 1.181 130 122 100
1.097 0.875 1.180 126 119 99
1.101 0.873 1.181 128 121 98
1.103 0.873 1.181 127 118 97
1.096 0.879 1.181 124 118 98
1.099 0.880 1.180 125 120 97
1.102 0.877 1.181 132 123 100
1.101 0.877 1.183 133 125 101
1.105 0.868 1.181 137 131 104
1.107 0.868 1.181 130 128 103
1.111 0.867 1.181 134 129 103
1.108 0.867 1.183 133 132 106
1.107 0.870 1.183 129 125 101
1.108 0.871 1.183 255 246 202
1.109 0.871 1.181 135 134 108
1.112 0.870 1.181 134 129 105
1.114 0.867 1.181 141 135 108
1.113 0.865 1.183 142 136 110
1.117 0.865 1.181 144 135 112
1.119 0.865 1.181 144 135 110
1.113 0.870 1.181 140 133 110
1.115 0.870 1.181 139 132 108
1.118 0.870 1.181 144 135 110
1.119 0.870 1.181 142 135 112
1.106 0.873 1.181 131 123 101
1.108 0.875 1.181 136 129 107
1.111 0.875 1.183 134 129 106
1.107 0.876 1.181 133 125 101
1.105 0.876 1.183 134 126 103
1.112 0.880 1.181 136 128 105
1.108 0.879 1.183 135 128 105
1.113 0.873 1.181 255 248 214
1.113 0.875 1.181 132 129 106
1.114 0.875 1.181 139 134 109
1.117 0.874 1.181 255 252 215
1.119 0.874 1.181 146 138 112
1.117 0.875 1.181 141 133 109
1.113 0.880 1.181 138 133 106
1.115 0.880 1.181 135 130 104
1.118 0.879 1.181 138 133 106
1.119 0.879 1.181 143 135 109
1.089 0.880 1.169 135 127 104
1.093 0.887 1.169 204 189 164
1.093 0.887 1.174 212 197 172
1.091 0.894 1.172 132 127 104
1.094 0.895 1.172 200 195 166
1.091 0.887 1.179 216 205 174
1.096 0.880 1.180 119 113 93
1.094 0.882 1.183 240 225 188
1.096 0.886 1.179 120 115 92
1.097 0.883 1.181 120 115 92
1.100 0.882 1.183 121 119 95
1.103 0.881 1.181 129 125 98
1.101 0.882 1.181 131 125 98
1.099 0.887 1.181 128 123 99
1.097 0.885 1.183 232 216 182
1.100 0.887 1.183 125 120 97
1.103 0.886 1.181 131 126 99
1.102 0.887 1.181 127 122 98
1.101 0.887 1.183 249 234 196
1.094 0.895 1.177 208 196 164
1.095 0.893 1.180 224 212 180
1.097 0.889 1.179 121 114 92
1.099 0.894 1.179 122 115 92
1.099 0.892 1.183 125 117 95
1.101 0.891 1.181 124 116 94
1.102 0.891 1.181 127 122 99
1.100 0.895 1.181 120 115 92
1.101 0.895 1.181 122 117 93
1.103 0.894 1.181 131 123 101
1.105 0.880 1.181 133 126 102
1.108 0.880 1.181 133 128 101
1.106 0.885 1.181 131 125 98
1.108 0.885 1.181 129 125 100
1.107 0.887 1.183 255 240 206
1.111 0.885 1.181 136 132 107
1.113 0.883 1.181 130 126 101
1.118 0.882 1.181 136 130 104
1.117 0.883 1.181 140 133 109
1.114 0.885 1.181 136 129 106
1.114 0.887 1.181 137 130 107
1.117 0.887 1.181 135 130 104
1.119 0.887 1.183 140 134 107
1.107 0.889 1.181 132 127 102
1.105 0.889 1.183 131 126 101
1.112 0.888 1.181 135 128 105
1.108 0.888 1.183 132 123 100
1.111 0.889 1.183 255 248 209
1.106 0.893 1.183 129 122 100
1.108 0.893 1.183 129 122 99
1.109 0.893 1.181 137 126 104
1.112 0.892 1.181 136 128 105
1.113 0.888 1.183 137 130 107
1.118 0.892 1.181 137 133 106
1.119 0.892 1.181 139 133 106
1.117 0.891 1.183 255 254 213
1.115 0.892 1.181 135 130 106
1.113 0.892 1.183 139 134 109
1.119 0.895 1.181 137 133 108
1.117 0.895 1.183 137 133 108
1.120 0.865 1.181 145 139 112
1.123 0.864 1.181 145 138 114
1.125 0.868 1.183 144 138 111
1.121 0.869 1.181 142 135 112
1.124 0.869 1.181 146 139 115
1.130 0.867 1.181 146 139 115
1.131 0.865 1.183 207 186 150
1.129 0.869 1.180 146 140 113
1.129 0.871 1.181 144 136 113
1.131 0.871 1.181 147 141 114
1.123 0.873 1.181 144 139 114
1.120 0.875 1.181 144 138 111
1.125 0.873 1.181 146 140 113
1.126 0.873 1.181 148 144 117
1.121 0.877 1.181 141 134 111
1.123 0.876 1.181 255 251 205
1.124 0.877 1.181 142 135 112
1.125 0.877 1.181 143 138 111
1.127 0.876 1.181 255 243 205
1.130 0.875 1.181 148 140 114
1.131 0.875 1.181 148 140 114
1.131 0.880 1.181 255 251 217
1.121 0.881 1.181 141 138 107
1.120 0.882 1.181 140 136 106
1.125 0.881 1.181 142 139 108
1.126 0.881 1.181 147 139 113
1.121 0.887 1.181 142 136 109
1.124 0.887 1.181 139 133 106
1.125 0.886 1.181 146 139 115
1.127 0.886 1.181 141 135 108
1.129 0.880 1.181 145 139 112
1.131 0.880 1.181 143 138 111
1.132 0.880 1.181 145 139 112
1.135 0.880 1.183 142 138 112
1.135 0.882 1.183 140 139 113
1.129 0.885 1.181 142 138 111
1.131 0.885 1.181 146 139 115
1.133 0.885 1.181 143 142 114
1.136 0.887 1.183 141 134 111
1.136 0.887 1.184 151 136 110
1.121 0.891 1.181 142 135 112
1.124 0.891 1.181 143 136 114
1.125 0.889 1.181 141 133 109
1.127 0.889 1.181 142 136 109
1.120 0.895 1.181 140 135 110
1.123 0.894 1.181 144 140 115
1.121 0.892 1.183 255 243 199
1.125 0.892 1.181 255 253 209
1.125 0.894 1.181 143 136 113
1.126 0.894 1.181 140 133 109
1.130 0.888 1.181 141 135 108
1.133 0.888 1.181 144 140 115
1.132 0.889 1.181 144 138 114
1.131 0.893 1.181 146 140 113
1.130 0.894 1.181 147 140 116
1.129 0.895 1.183 255 255 221
1.132 0.892 1.181 144 139 112
1.135 0.892 1.181 140 135 108
1.132 0.895 1.183 252 235 201
1.137 0.894 1.184 146 139 115
1.096 0.901 1.153 212 198 177
1.096 0.900 1.157 211 197 171
1.099 0.910 1.155 209 195 169
1.093 0.897 1.167 120 113 91
1.096 0.901 1.163 214 199 173
1.097 0.899 1.167 132 127 103
1.095 0.909 1.167 115 113 90
1.097 0.910 1.161 213 203 175
1.097 0.905 1.166 121 120 92
1.099 0.906 1.167 133 128 104
1.099 0.910 1.165 206 195 168
1.101 0.918 1.153 220 204 174
1.101 0.918 1.157 219 205 183
1.102 0.928 1.160 217 203 177
1.100 0.918 1.162 219 201 181
1.101 0.913 1.166 132 125 103
1.100 0.918 1.167 208 198 174
1.102 0.924 1.161 121 114 92
1.102 0.924 1.163 135 128 106
1.102 0.928 1.166 211 197 171
1.094 0.900 1.169 114 109 86
1.096 0.903 1.168 216 197 174
1.096 0.910 1.169 122 120 99
1.096 0.904 1.173 216 204 172
1.095 0.909 1.173 112 109 88
1.096 0.911 1.173 124 117 98
1.099 0.911 1.171 214 200 174
1.099 0.911 1.175 209 198 170
1.096 0.901 1.179 209 198 170
1.099 0.898 1.180 119 111 90
1.097 0.899 1.181 235 222 190
1.101 0.899 1.181 123 119 95
1.100 0.903 1.180 122 117 94
1.103 0.900 1.181 128 121 99
1.102 0.903 1.181 126 119 95
1.101 0.901 1.183 247 234 198
1.101 0.906 1.179 120 115 92
1.099 0.910 1.179 237 224 188
1.103 0.907 1.181 121 114 91
1.101 0.911 1.180 120 115 92
1.105 0.899 1.181 129 122 100
1.107 0.899 1.181 130 126 101
1.108 0.898 1.181 130 123 100
1.111 0.897 1.181 130 122 99
1.105 0.904 1.181 125 117 95
1.106 0.904 1.181 127 120 98
1.108 0.903 1.181 128 121 99
1.109 0.901 1.181 130 123 100
1.114 0.898 1.181 134 127 103
1.113 0.897 1.183 136 128 105
1.119 0.899 1.183 135 130 107
1.113 0.901 1.181 133 124 99
1.115 0.900 1.181 140 132 106
1.113 0.900 1.183 134 127 103
1.118 0.900 1.183 140 135 110
1.106 0.907 1.181 129 122 99
1.105 0.905 1.184 255 240 206
1.107 0.906 1.183 129 122 102
1.111 0.905 1.181 127 122 99
1.108 0.905 1.183 126 119 96
1.111 0.907 1.183 255 240 203
1.105 0.911 1.181 122 120 99
1.106 0.911 1.181 125 120 96
1.112 0.910 1.181 129 122 100
1.108 0.911 1.181 133 126 103
1.111 0.911 1.181 128 122 102
1.114 0.905 1.181 130 123 100
1.113 0.904 1.183 130 126 101
1.117 0.905 1.181 136 129 106
1.119 0.905 1.181 134 127 105
1.118 0.907 1.183 131 127 102
1.119 0.906 1.183 134 129 106
1.114 0.910 1.181 130 123 101
1.115 0.911 1.181 131 127 103
1.115 0.909 1.183 255 247 209
1.119 0.909 1.183 255 249 213
1.101 0.918 1.173 204 190 164
1.099 0.924 1.173 109 107 84
1.102 0.916 1.179 119 116 95
1.101 0.919 1.178 211 196 170
1.101 0.915 1.181 233 220 188
1.103 0.921 1.179 117 115 94
1.103 0.923 1.179 116 110 91
1.102 0.928 1.180 233 220 188
1.107 0.916 1.183 120 114 94
1.109 0.916 1.181 129 121 98
1.111 0.915 1.183 129 122 99
1.105 0.916 1.181 117 115 96
1.106 0.919 1.183 241 228 196
1.109 0.919 1.181 129 120 99
1.112 0.918 1.181 128 121 97
1.114 0.913 1.181 133 130 107
1.113 0.915 1.181 133 124 101
1.117 0.912 1.181 133 131 106
1.119 0.912 1.181 134 129 105
1.115 0.917 1.181 131 127 103
1.113 0.917 1.183 135 128 105
1.118 0.917 1.181 124 122 99
1.119 0.916 1.181 129 124 100
1.105 0.928 1.179 117 115 92
1.106 0.921 1.181 122 117 94
1.108 0.921 1.181 121 116 93
1.108 0.923 1.181 124 122 101
1.111 0.923 1.181 129 122 100
1.109 0.922 1.183 245 232 195
1.107 0.924 1.181 122 117 94
1.112 0.928 1.181 127 122 99
1.109 0.928 1.183 123 118 94
1.113 0.922 1.181 127 120 96
1.114 0.922 1.181 129 122 99
1.119 0.922 1.181 134 131 108
1.117 0.922 1.183 124 122 99
1.113 0.928 1.181 130 125 102
1.113 0.925 1.184 255 244 207
1.115 0.925 1.183 127 122 97
1.118 0.925 1.181 134 127 103
1.119 0.925 1.181 131 127 102
1.118 0.925 1.183 255 240 202
1.121 0.899 1.181 142 135 112
1.124 0.899 1.181 139 134 107
1.127 0.899 1.181 143 135 109
1.125 0.898 1.183 139 134 107
1.123 0.904 1.183 140 135 110
1.125 0.904 1.181 141 134 110
1.126 0.904 1.181 144 136 113
1.131 0.897 1.181 147 139 113
1.130 0.897 1.183 146 137 112
1.133 0.898 1.181 146 137 114
1.136 0.898 1.181 144 136 113
1.136 0.898 1.183 255 227 197
1.131 0.901 1.181 141 136 112
1.129 0.903 1.181 147 135 113
1.132 0.901 1.181 144 137 114
1.135 0.901 1.181 143 136 113
1.120 0.904 1.181 137 133 109
1.124 0.907 1.181 135 130 107
1.125 0.907 1.181 142 134 108
1.127 0.906 1.181 147 139 113
1.121 0.909 1.181 135 130 107
1.120 0.911 1.181 134 129 106
1.124 0.910 1.183 255 247 205
1.124 0.911 1.183 136 131 107
1.126 0.911 1.181 137 130 108
1.126 0.911 1.183 255 255 209
1.131 0.905 1.181 143 137 110
1.130 0.906 1.181 142 134 108
1.133 0.905 1.181 142 136 109
1.136 0.905 1.181 143 140 109
1.131 0.910 1.181 143 135 112
1.129 0.911 1.181 143 137 110
1.131 0.911 1.181 144 139 112
1.136 0.910 1.181 143 135 109
1.135 0.911 1.180 145 134 109
1.138 0.899 1.183 148 141 117
1.137 0.901 1.181 144 139 112
1.138 0.904 1.184 197 171 138
1.137 0.905 1.181 148 143 116
1.139 0.904 1.181 145 141 116
1.139 0.907 1.183 145 137 112
1.138 0.910 1.181 149 143 116
1.123 0.912 1.181 135 130 107
1.126 0.916 1.181 142 136 109
1.121 0.917 1.181 130 125 99
1.124 0.916 1.183 137 130 107
1.120 0.919 1.183 135 130 107
1.125 0.916 1.181 137 133 108
1.127 0.919 1.181 142 134 110
1.125 0.919 1.183 141 133 109
1.131 0.915 1.181 143 136 113
1.131 0.912 1.183 255 255 219
1.129 0.915 1.183 140 134 107
1.132 0.915 1.181 147 140 116
1.135 0.915 1.181 141 135 108
1.135 0.915 1.183 250 225 187
1.130 0.919 1.181 141 134 110
1.131 0.918 1.181 137 131 104
1.133 0.918 1.181 143 137 110
1.136 0.918 1.181 142 137 110
1.123 0.921 1.181 134 133 107
1.125 0.921 1.181 134 129 104
1.127 0.923 1.181 139 135 110
1.121 0.924 1.181 134 129 106
1.124 0.924 1.181 132 128 104
1.121 0.927 1.183 255 244 210
1.127 0.928 1.181 142 135 111
1.125 0.924 1.183 135 130 107
1.125 0.927 1.183 255 254 216
1.131 0.923 1.181 142 134 110
1.129 0.922 1.183 142 135 111
1.135 0.923 1.181 141 137 107
1.132 0.922 1.183 138 131 108
1.130 0.928 1.181 144 136 113
1.131 0.927 1.181 145 137 114
1.130 0.928 1.183 255 250 212
1.133 0.928 1.181 142 137 113
1.136 0.927 1.183 142 137 110
1.139 0.913 1.181 145 139 115
1.137 0.915 1.181 145 140 113
1.139 0.915 1.181 239 219 179
1.141 0.912 1.181 148 140 114
1.137 0.917 1.181 148 140 114
1.142 0.916 1.181 146 135 113
1.141 0.918 1.181 144 136 113
1.143 0.918 1.183 208 191 157
1.138 0.922 1.181 145 137 114
1.137 0.922 1.181 145 140 113
1.141 0.922 1.181 150 138 116
1.143 0.921 1.183 141 135 108
1.139 0.925 1.181 141 134 110
1.137 0.927 1.181 146 138 115
1.142 0.925 1.181 149 141 117
1.143 0.925 1.181 148 140 114
1.103 0.928 1.155 220 202 178
1.102 0.928 1.165 126 121 97
1.105 0.936 1.153 217 200 176
1.106 0.936 1.157 212 198 172
1.106 0.939 1.160 129 129 107
1.107 0.941 1.160 139 134 111
1.106 0.936 1.162 213 195 175
1.107 0.944 1.161 135 133 109
1.106 0.936 1.167 204 199 170
1.106 0.946 1.155 217 200 176
1.107 0.945 1.160 216 202 176
1.111 0.958 1.154 210 201 173
1.108 0.953 1.156 207 196 164
1.109 0.953 1.160 139 134 110
1.109 0.958 1.159 207 197 166
1.108 0.947 1.161 133 128 105
1.108 0.952 1.161 208 196 164
1.107 0.946 1.165 214 201 175
1.108 0.956 1.161 124 123 98
1.109 0.958 1.163 212 200 168
1.108 0.953 1.167 213 195 171
1.102 0.928 1.171 214 200 174
1.101 0.933 1.171 115 113 92
1.100 0.930 1.174 125 120 96
1.102 0.928 1.175 211 196 174
1.102 0.941 1.175 122 120 101
1.105 0.938 1.173 212 202 174
1.106 0.933 1.179 121 116 93
1.108 0.928 1.183 120 115 92
1.109 0.931 1.183 124 117 94
1.112 0.930 1.183 127 120 97
1.106 0.934 1.181 233 218 192
1.108 0.934 1.181 130 122 99
1.114 0.931 1.181 129 122 100
1.115 0.929 1.183 132 125 102
1.119 0.929 1.181 135 128 104
1.119 0.928 1.183 131 124 102
1.113 0.935 1.181 128 123 100
1.115 0.935 1.181 129 122 100
1.119 0.934 1.181 130 125 101
1.117 0.934 1.183 127 122 97
1.105 0.938 1.178 218 204 182
1.108 0.938 1.179 121 112 89
1.108 0.940 1.179 120 115 92
1.109 0.938 1.181 121 116 93
1.112 0.936 1.181 121 116 92
1.112 0.940 1.181 124 120 95
1.108 0.938 1.183 243 230 194
1.109 0.940 1.181 123 116 96
1.113 0.939 1.183 127 120 96
1.115 0.939 1.183 131 124 101
1.119 0.938 1.181 135 128 104
1.118 0.938 1.183 130 123 101
1.114 0.944 1.181 130 122 98
1.113 0.940 1.183 249 234 196
1.115 0.941 1.183 253 238 200
1.117 0.944 1.181 133 126 103
1.119 0.942 1.181 131 126 103
1.119 0.942 1.183 255 244 206
1.107 0.946 1.171 217 199 175
1.107 0.946 1.175 214 196 176
1.109 0.958 1.168 214 201 175
1.108 0.953 1.173 209 195 169
1.106 0.946 1.179 232 214 190
1.108 0.946 1.179 120 115 92
1.105 0.951 1.179 122 119 101
1.108 0.952 1.177 212 198 172
1.111 0.952 1.178 122 115 95
1.111 0.945 1.181 124 117 97
1.108 0.950 1.180 250 234 200
1.112 0.948 1.181 117 115 92
1.113 0.945 1.181 123 116 96
1.113 0.947 1.181 125 120 97
1.115 0.947 1.183 126 122 98
1.118 0.946 1.181 123 116 94
1.119 0.946 1.183 127 120 96
1.117 0.951 1.183 124 119 95
1.118 0.951 1.183 130 125 101
1.106 0.956 1.178 110 104 87
1.111 0.954 1.178 115 112 89
1.107 0.959 1.177 112 106 88
1.109 0.958 1.179 208 197 166
1.112 0.954 1.183 238 224 186
1.107 0.958 1.180 107 105 84
1.113 0.957 1.179 121 118 97
1.113 0.952 1.181 120 114 94
1.115 0.952 1.181 119 115 91
1.115 0.956 1.181 125 119 97
1.118 0.956 1.181 123 116 94
1.119 0.956 1.181 123 116 94
1.114 0.957 1.180 120 113 91
1.114 0.958 1.183 246 230 196
1.119 0.959 1.181 130 123 101
1.119 0.959 1.181 127 121 101
1.119 0.959 1.184 243 231 195
1.123 0.928 1.181 132 125 102
1.124 0.928 1.181 134 127 103
1.126 0.928 1.183 138 131 108
1.121 0.934 1.181 135 129 102
1.123 0.933 1.183 135 128 104
1.125 0.933 1.181 137 133 109
1.126 0.933 1.183 137 133 108
1.131 0.931 1.181 138 131 108
1.135 0.931 1.181 138 134 107
1.132 0.930 1.183 143 136 113
1.133 0.930 1.183 255 255 220
1.130 0.933 1.181 141 134 110
1.131 0.935 1.181 140 136 113
1.130 0.935 1.183 132 125 102
1.133 0.935 1.181 133 133 107
1.136 0.934 1.183 139 138 113
1.124 0.938 1.181 133 129 106
1.121 0.938 1.183 132 128 104
1.125 0.938 1.181 133 129 105
1.127 0.936 1.181 136 129 105
1.120 0.941 1.181 132 125 102
1.123 0.941 1.181 130 128 104
1.125 0.941 1.183 132 130 106
1.126 0.940 1.183 134 127 103
1.131 0.940 1.181 141 136 109
1.135 0.939 1.181 145 138 115
1.136 0.940 1.181 140 134 110
1.132 0.940 1.183 136 131 108
1.131 0.944 1.181 136 129 105
1.129 0.940 1.183 135 130 106
1.133 0.944 1.181 140 135 110
1.136 0.942 1.183 137 133 109
1.137 0.931 1.181 141 134 110
1.138 0.930 1.181 144 138 111
1.138 0.931 1.183 255 255 222
1.143 0.929 1.181 144 140 115
1.141 0.930 1.181 144 137 114
1.137 0.935 1.181 144 138 111
1.138 0.935 1.181 147 143 116
1.143 0.934 1.181 145 140 113
1.142 0.935 1.181 146 140 116
1.143 0.933 1.183 197 184 152
1.144 0.928 1.181 144 138 111
1.144 0.931 1.183 144 138 111
1.137 0.940 1.181 142 137 113
1.139 0.938 1.183 144 137 114
1.143 0.938 1.181 146 138 113
1.142 0.938 1.183 145 137 113
1.137 0.944 1.181 139 133 109
1.138 0.944 1.181 141 136 113
1.141 0.942 1.181 141 135 112
1.143 0.942 1.181 143 135 112
1.145 0.936 1.181 144 140 113
1.148 0.938 1.183 175 160 135
1.144 0.941 1.181 143 137 110
1.147 0.940 1.181 141 136 110
1.149 0.941 1.184 119 116 93
1.121 0.946 1.181 135 129 106
1.124 0.945 1.183 255 242 202
1.124 0.946 1.183 132 127 104
1.125 0.946 1.181 129 124 100
1.127 0.946 1.181 132 128 104
1.123 0.950 1.181 132 124 101
1.120 0.951 1.181 132 125 102
1.125 0.951 1.181 133 126 103
1.127 0.948 1.183 131 126 102
1.126 0.950 1.183 133 129 104
1.130 0.945 1.181 135 130 107
1.129 0.946 1.183 255 253 216
1.130 0.947 1.183 137 130 107
1.136 0.946 1.181 136 131 107
1.135 0.947 1.181 144 135 113
1.132 0.946 1.183 255 243 213
1.131 0.952 1.183 138 130 107
1.132 0.948 1.181 137 132 108
1.132 0.952 1.183 137 130 106
1.135 0.952 1.183 138 133 108
1.120 0.953 1.183 127 122 98
1.123 0.954 1.183 132 126 100
1.126 0.953 1.181 135 129 105
1.125 0.953 1.183 131 125 102
1.124 0.958 1.181 135 127 105
1.123 0.958 1.183 125 119 99
1.127 0.958 1.181 134 129 109
1.125 0.958 1.183 131 125 102
1.129 0.952 1.183 137 132 107
1.133 0.956 1.181 135 128 105
1.136 0.956 1.181 140 134 110
1.130 0.957 1.181 134 130 107
1.131 0.957 1.181 134 130 106
1.135 0.959 1.181 136 128 103
1.132 0.959 1.183 133 128 104
1.138 0.946 1.181 137 133 108
1.137 0.947 1.183 255 255 219
1.139 0.946 1.183 144 139 114
1.142 0.946 1.181 140 139 113
1.143 0.946 1.181 140 136 111
1.137 0.951 1.181 142 135 111
1.138 0.952 1.181 140 134 110
1.143 0.948 1.181 255 253 213
1.143 0.951 1.181 142 135 111
1.141 0.950 1.183 143 136 112
1.145 0.946 1.181 144 136 110
1.148 0.945 1.181 144 137 113
1.149 0.947 1.184 118 116 93
1.148 0.948 1.181 139 135 108
1.147 0.950 1.181 145 138 115
1.144 0.951 1.181 146 140 116
1.148 0.951 1.181 240 216 184
1.150 0.952 1.184 143 137 114
1.139 0.954 1.181 138 133 107
1.137 0.954 1.183 142 136 113
1.141 0.954 1.181 141 135 111
1.143 0.954 1.181 143 136 112
1.138 0.958 1.181 137 133 106
1.137 0.958 1.183 135 130 106
1.143 0.958 1.181 145 138 112
1.141 0.958 1.181 140 135 108
1.143 0.958 1.181 145 139 112
1.144 0.953 1.181 142 135 111
1.147 0.953 1.181 146 140 113
1.149 0.952 1.181 142 136 112
1.150 0.956 1.184 140 135 111
1.151 0.956 1.184 233 202 170
1.148 0.957 1.181 139 138 110
1.145 0.957 1.183 145 140 113
1.149 0.957 1.181 143 139 112
1.112 0.966 1.155 212 199 173
1.111 0.962 1.160 141 136 113
1.113 0.974 1.153 208 198 166
1.113 0.974 1.154 138 134 110
1.113 0.974 1.157 209 197 175
1.111 0.965 1.161 215 203 172
1.111 0.965 1.166 210 200 172
1.113 0.975 1.162 212 195 171
1.113 0.975 1.167 211 198 172
1.114 0.976 1.155 128 123 100
1.114 0.982 1.155 210 193 170
1.113 0.977 1.156 138 136 113
1.114 0.983 1.160 209 194 165
1.117 0.987 1.153 137 131 108
1.117 0.987 1.155 129 122 100
1.118 0.989 1.156 211 197 168
1.115 0.982 1.165 208 195 169
1.117 0.992 1.161 214 200 170
1.117 0.992 1.167 213 198 169
1.112 0.966 1.171 214 204 180
1.108 0.960 1.173 211 197 171
1.112 0.966 1.175 207 197 165
1.113 0.976 1.173 206 196 168
1.115 0.974 1.175 119 114 91
1.108 0.964 1.179 115 112 92
1.112 0.965 1.180 218 207 176
1.113 0.962 1.178 120 113 93
1.114 0.965 1.178 122 114 95
1.114 0.960 1.181 123 116 94
1.117 0.960 1.181 122 116 94
1.118 0.964 1.181 124 120 96
1.119 0.963 1.183 125 120 97
1.115 0.964 1.181 122 115 93
1.119 0.968 1.183 122 115 93
1.113 0.975 1.178 213 203 179
1.113 0.971 1.181 239 229 197
1.117 0.969 1.181 120 116 93
1.117 0.972 1.181 122 116 96
1.119 0.972 1.181 121 116 96
1.119 0.976 1.181 124 117 94
1.118 0.976 1.183 237 221 187
1.113 0.983 1.171 213 199 174
1.115 0.976 1.175 118 114 91
1.114 0.983 1.175 212 202 174
1.117 0.992 1.173 199 189 165
1.119 0.992 1.175 115 111 88
1.112 0.978 1.180 108 105 86
1.117 0.978 1.177 118 114 91
1.115 0.982 1.179 214 200 175
1.117 0.982 1.178 120 115 92
1.118 0.976 1.181 120 116 93
1.113 0.983 1.180 113 109 88
1.119 0.981 1.181 122 116 94
1.119 0.983 1.181 120 115 93
1.118 0.987 1.178 116 111 88
1.118 0.990 1.178 215 198 174
1.118 0.988 1.181 235 224 188
1.124 0.962 1.181 124 121 98
1.120 0.962 1.183 124 121 98
1.123 0.960 1.183 255 249 211
1.125 0.962 1.181 129 126 103
1.126 0.962 1.183 131 126 102
1.126 0.964 1.184 255 245 211
1.124 0.965 1.181 126 121 98
1.120 0.968 1.181 122 120 96
1.123 0.966 1.183 123 119 96
1.126 0.965 1.181 131 126 103
1.127 0.965 1.181 126 121 98
1.131 0.960 1.181 131 126 102
1.129 0.960 1.183 132 128 103
1.136 0.964 1.181 138 132 105
1.132 0.964 1.183 135 130 105
1.131 0.964 1.181 135 130 106
1.130 0.964 1.183 131 126 103
1.131 0.964 1.183 255 236 201
1.136 0.968 1.181 135 129 105
1.133 0.968 1.183 135 129 105
1.121 0.971 1.181 119 116 93
1.123 0.970 1.183 128 123 100
1.126 0.970 1.181 131 123 102
1.125 0.970 1.183 127 121 98
1.121 0.975 1.181 121 118 95
1.124 0.974 1.183 119 116 96
1.125 0.974 1.181 129 125 101
1.127 0.972 1.183 130 124 100
1.131 0.970 1.181 132 128 104
1.129 0.969 1.183 131 126 102
1.131 0.969 1.183 131 129 104
1.135 0.971 1.183 134 129 104
1.130 0.972 1.181 132 127 104
1.131 0.972 1.183 127 125 100
1.132 0.972 1.181 129 125 101
1.136 0.976 1.181 134 129 103
1.139 0.963 1.181 143 138 112
1.137 0.963 1.183 135 130 104
1.141 0.963 1.181 139 134 108
1.143 0.962 1.183 140 133 110
1.137 0.966 1.181 135 131 104
1.137 0.965 1.183 255 252 216
1.139 0.966 1.183 135 130 104
1.142 0.966 1.181 137 135 110
1.143 0.966 1.181 140 136 112
1.142 0.966 1.183 255 255 217
1.147 0.962 1.181 138 134 109
1.144 0.962 1.183 145 137 114
1.149 0.962 1.181 143 139 114
1.150 0.960 1.183 147 141 118
1.148 0.965 1.181 140 135 111
1.145 0.965 1.183 141 137 110
1.151 0.965 1.181 144 139 114
1.149 0.964 1.183 143 137 112
1.138 0.970 1.181 137 132 107
1.137 0.971 1.183 134 128 105
1.143 0.970 1.181 138 134 108
1.141 0.970 1.183 142 137 111
1.137 0.975 1.183 136 130 105
1.139 0.976 1.183 140 136 109
1.142 0.976 1.181 140 136 110
1.143 0.974 1.183 137 134 107
1.147 0.970 1.181 143 139 114
1.148 0.970 1.181 143 139 116
1.144 0.970 1.181 139 137 112
1.147 0.969 1.183 255 253 215
1.149 0.970 1.183 139 136 111
1.151 0.969 1.183 142 138 113
1.150 0.970 1.183 255 248 212
1.145 0.974 1.181 140 136 111
1.147 0.972 1.183 142 138 113
1.150 0.974 1.181 145 139 115
1.149 0.972 1.183 142 136 112
1.151 0.976 1.183 141 135 109
1.120 0.980 1.181 120 116 93
1.123 0.978 1.181 122 119 99
1.121 0.977 1.184 254 234 199
1.126 0.977 1.181 128 123 100
1.125 0.978 1.181 124 118 96
1.121 0.983 1.181 120 117 93
1.123 0.982 1.181 122 117 97
1.127 0.982 1.181 127 122 99
1.125 0.982 1.183 125 122 98
1.126 0.981 1.184 255 240 206
1.129 0.976 1.183 132 126 103
1.131 0.977 1.183 128 123 100
1.132 0.976 1.183 134 130 106
1.135 0.976 1.183 135 131 105
1.131 0.982 1.181 127 123 100
1.129 0.982 1.183 130 125 102
1.131 0.981 1.183 255 244 206
1.136 0.981 1.181 134 128 105
1.132 0.981 1.183 132 127 104
1.121 0.988 1.181 114 111 89
1.123 0.987 1.181 120 115 94
1.127 0.986 1.181 128 124 98
1.125 0.987 1.181 120 116 93
1.126 0.986 1.183 122 119 95
1.121 0.992 1.181 121 115 94
1.124 0.990 1.181 119 111 91
1.125 0.989 1.183 123 117 96
1.127 0.989 1.183 122 118 94
1.130 0.986 1.183 126 122 97
1.131 0.984 1.183 131 128 104
1.133 0.984 1.181 130 126 100
1.136 0.984 1.181 136 132 107
1.136 0.987 1.183 134 128 105
1.129 0.989 1.181 128 123 99
1.131 0.989 1.181 128 124 101
1.131 0.992 1.183 127 121 100
1.135 0.988 1.181 128 126 101
1.132 0.988 1.183 129 125 101
1.137 0.980 1.183 139 132 108
1.137 0.980 1.183 134 127 104
1.141 0.980 1.181 140 134 110
1.142 0.978 1.183 138 132 105
1.138 0.983 1.181 132 128 103
1.137 0.982 1.183 255 248 212
1.137 0.983 1.183 132 128 103
1.141 0.983 1.181 137 131 107
1.142 0.983 1.183 255 253 215
1.143 0.982 1.183 137 130 106
1.144 0.978 1.181 140 134 108
1.145 0.977 1.183 143 137 111
1.149 0.977 1.181 141 136 109
1.149 0.976 1.183 140 133 111
1.147 0.982 1.181 142 136 112
1.144 0.982 1.183 138 132 108
1.150 0.981 1.181 142 137 111
1.149 0.981 1.183 140 133 110
1.138 0.988 1.181 131 126 102
1.142 0.988 1.181 140 133 110
1.141 0.987 1.183 135 130 106
1.143 0.987 1.183 138 133 109
1.137 0.992 1.181 131 129 104
1.138 0.990 1.183 134 129 105
1.143 0.989 1.183 136 131 108
1.143 0.989 1.183 137 132 108
1.142 0.990 1.183 133 129 105
1.148 0.986 1.181 138 134 109
1.144 0.984 1.183 255 249 211
1.145 0.986 1.183 138 134 107
1.149 0.986 1.181 139 135 109
1.149 0.986 1.183 255 255 222
1.151 0.984 1.183 144 137 111
1.149 0.988 1.183 142 136 112
1.147 0.990 1.181 137 133 107
1.148 0.988 1.183 141 135 110
1.151 0.988 1.183 255 246 210
1.119 0.998 1.153 138 133 110
1.119 0.999 1.154 210 196 167
1.119 0.999 1.160 203 193 161
1.119 1.001 1.153 133 127 107
1.119 0.999 1.165 212 197 168
1.119 1.008 1.154 127 121 98
1.119 0.999 1.169 211 196 166
1.119 0.999 1.174 202 193 169
1.119 0.999 1.179 221 207 181
1.120 1.004 1.155 142 137 114
1.121 1.007 1.156 213 194 170
1.121 1.007 1.161 207 191 167
1.123 1.012 1.154 137 133 110
1.124 1.018 1.154 210 198 172
1.123 1.020 1.154 123 119 97
1.124 1.018 1.160 205 189 165
1.121 1.008 1.167 204 188 164
1.124 1.018 1.165 215 195 171
1.120 0.996 1.174 115 109 89
1.123 1.001 1.173 122 116 95
1.123 0.995 1.181 120 114 95
1.120 0.994 1.183 239 223 193
1.125 0.994 1.181 118 114 92
1.125 0.994 1.183 123 117 98
1.125 0.996 1.183 248 237 205
1.126 0.998 1.183 121 119 96
1.125 0.999 1.183 118 117 95
1.130 0.994 1.181 126 120 98
1.129 0.994 1.183 125 119 97
1.133 0.993 1.181 129 125 102
1.136 0.995 1.181 129 125 102
1.136 0.993 1.183 129 125 102
1.131 0.998 1.181 126 120 97
1.130 0.999 1.181 126 121 99
1.130 1.000 1.184 243 232 194
1.133 0.996 1.181 131 125 103
1.132 0.998 1.181 126 120 99
1.133 1.000 1.183 129 124 100
1.136 1.000 1.183 130 126 101
1.124 1.000 1.181 115 113 93
1.124 1.002 1.181 112 113 89
1.127 1.001 1.183 120 117 94
1.125 1.002 1.183 116 113 92
1.123 1.006 1.181 216 205 173
1.125 1.006 1.183 118 115 93
1.126 1.006 1.183 119 115 93
1.130 1.001 1.181 126 120 96
1.131 1.000 1.183 128 123 100
1.135 1.004 1.181 129 125 99
1.136 1.000 1.184 254 246 208
1.136 1.004 1.183 128 123 99
1.131 1.006 1.181 125 118 95
1.129 1.006 1.181 122 117 94
1.132 1.005 1.183 125 119 96
1.137 0.995 1.183 131 126 102
1.141 0.995 1.181 133 127 103
1.143 0.994 1.183 138 132 108
1.142 0.994 1.183 136 131 105
1.137 1.000 1.183 130 126 101
1.138 1.000 1.183 131 124 99
1.143 1.000 1.181 131 125 98
1.141 0.999 1.183 131 124 98
1.145 0.994 1.181 138 134 108
1.147 0.994 1.183 141 135 110
1.149 0.994 1.181 139 133 106
1.150 0.993 1.181 138 134 109
1.144 0.998 1.181 139 134 106
1.148 0.998 1.181 139 133 108
1.147 0.998 1.183 138 132 106
1.149 0.996 1.181 136 132 106
1.151 0.996 1.183 138 134 110
1.139 1.001 1.183 81 74 57
1.137 1.002 1.183 108 102 81
1.139 1.002 1.184 255 245 207
1.141 1.001 1.183 84 77 59
1.143 1.001 1.183 103 96 74
1.143 1.004 1.184 255 253 217
1.137 1.007 1.181 122 118 95
1.138 1.006 1.183 121 118 98
1.141 1.007 1.181 116 118 102
1.143 1.005 1.183 108 109 94
1.143 1.006 1.184 114 117 97
1.144 1.001 1.183 135 127 104
1.148 1.001 1.183 135 129 103
1.149 1.001 1.181 137 133 106
1.150 1.000 1.183 139 134 109
1.145 1.006 1.183 134 126 105
1.148 1.006 1.183 140 133 109
1.147 1.005 1.184 255 254 217
1.151 1.005 1.181 135 132 104
1.149 1.005 1.183 137 133 107
1.150 1.005 1.183 255 252 214
1.120 1.010 1.173 211 196 167
1.123 1.008 1.173 116 111 90
1.124 1.010 1.173 117 113 93
1.125 1.014 1.173 110 109 88
1.124 1.019 1.169 213 192 168
1.126 1.024 1.172 119 113 92
1.124 1.019 1.174 206 193 167
1.125 1.018 1.173 124 119 97
1.121 1.008 1.177 204 191 165
1.125 1.012 1.181 118 112 93
1.127 1.010 1.183 117 112 89
1.127 1.014 1.180 117 111 92
1.125 1.012 1.183 241 229 194
1.130 1.010 1.181 125 121 97
1.131 1.008 1.183 124 117 94
1.133 1.008 1.181 128 121 100
1.135 1.008 1.181 123 120 96
1.130 1.013 1.181 126 120 95
1.129 1.013 1.183 119 112 93
1.131 1.012 1.183 126 123 98
1.131 1.016 1.184 245 230 200
1.133 1.012 1.181 128 122 98
1.136 1.012 1.181 127 120 96
1.135 1.016 1.183 244 232 200
1.124 1.017 1.179 222 211 179
1.127 1.020 1.179 118 113 90
1.130 1.024 1.179 118 113 92
1.130 1.017 1.181 121 116 93
1.131 1.017 1.181 123 117 96
1.132 1.017 1.181 123 119 95
1.135 1.017 1.183 127 122 98
1.133 1.019 1.183 124 119 95
1.131 1.020 1.181 121 117 94
1.131 1.022 1.181 119 114 93
1.136 1.020 1.183 126 121 97
1.132 1.024 1.183 121 118 96
1.135 1.024 1.183 124 121 97
1.137 1.013 1.180 121 115 93
1.138 1.016 1.183 178 164 138
1.143 1.014 1.181 232 219 199
1.147 1.011 1.181 136 131 108
1.149 1.010 1.181 136 132 106
1.151 1.008 1.181 143 136 112
1.150 1.010 1.181 137 133 106
1.148 1.016 1.181 255 248 215
1.149 1.013 1.181 135 131 104
1.151 1.012 1.183 139 133 106
1.139 1.020 1.179 107 103 82
1.139 1.023 1.179 98 94 76
1.137 1.017 1.180 111 107 85
1.137 1.020 1.181 109 105 86
1.139 1.024 1.181 106 104 84
1.137 1.023 1.183 127 124 99
1.137 1.024 1.183 119 117 96
1.150 1.017 1.181 132 124 101
1.148 1.024 1.180 109 104 84
1.145 1.024 1.183 71 65 55
1.148 1.024 1.184 73 65 51
1.150 1.020 1.181 136 130 109
1.149 1.023 1.181 124 120 101
1.151 1.020 1.183 255 255 218
1.153 0.960 1.183 138 133 108
1.153 0.964 1.183 140 136 111
1.154 0.969 1.181 140 135 111
1.154 0.970 1.183 200 183 149
1.155 0.972 1.181 141 135 112
1.153 0.972 1.183 145 138 114
1.155 0.976 1.183 140 134 111
1.154 0.977 1.181 145 141 116
1.155 0.976 1.184 250 235 209
